-4.970028	11.954085	0.107237
-4.970025	11.954085	0.203469
-4.970023	11.954084	0.298425
-4.970021	11.954084	0.392231
-4.970019	11.954084	0.485007
-4.970017	11.954083	0.576870
-4.970014	11.954083	0.667930
-4.970012	11.954083	0.758296
-4.970010	11.954082	0.848073
-4.970008	11.954082	0.937362
-4.970006	11.954082	1.026264
-4.970004	11.954081	1.114877
-4.970002	11.954081	1.203298
-4.970000	11.954081	1.291624
-4.969998	11.954081	1.379949
-4.969996	11.954080	1.468370
-4.969994	11.954080	1.556984
-4.969992	11.954080	1.645886
-4.969990	11.954079	1.735175
-4.969988	11.954079	1.824952
-4.969986	11.954079	1.915319
-4.969983	11.954078	2.006379
-3.235139	11.358904	0.092731
-3.346731	11.355883	0.092732
-3.467967	11.352601	0.092733
-3.600303	11.349018	0.092734
-3.745503	11.345086	0.092735
-3.905718	11.340749	0.092736
-4.083609	11.335932	0.092738
-4.282500	11.330548	0.092739
-4.506600	11.324480	0.092741
-4.761322	11.317584	0.092743
-4.969547	11.311946	0.119034
-4.969547	11.311946	0.214307
-4.969546	11.311946	0.308317
-4.969545	11.311946	0.401188
-4.969545	11.311946	0.493040
-4.969544	11.311946	0.583987
-4.969543	11.311946	0.674140
-4.969543	11.311946	0.763606
-4.969542	11.311947	0.852489
-4.969541	11.311947	0.940889
-4.969541	11.311947	1.028905
-4.969540	11.311947	1.116636
-4.969539	11.311947	1.204177
-4.969539	11.311947	1.291623
-4.969538	11.311947	1.379069
-4.969537	11.311947	1.466610
-4.969537	11.311947	1.554341
-4.969536	11.311947	1.642358
-4.969535	11.311947	1.730759
-4.969535	11.311947	1.819642
-4.969534	11.311947	1.909109
-4.969533	11.311947	1.999264
-3.196806	11.017824	0.092700
-3.306285	10.995966	0.092699
-3.425224	10.972218	0.092698
-3.555055	10.946297	0.092697
-3.697505	10.917855	0.092696
-3.854687	10.886473	0.092695
-4.029211	10.851627	0.092694
-4.224339	10.812668	0.092692
-4.444200	10.768771	0.092690
-4.694105	10.718876	0.092688
-4.966291	10.664531	0.097367
-4.966292	10.664531	0.194400
-4.966293	10.664531	0.290147
-4.966293	10.664531	0.384734
-4.966294	10.664531	0.478283
-4.966295	10.664530	0.570911
-4.966296	10.664530	0.662730
-4.966297	10.664530	0.753849
-4.966298	10.664530	0.844374
-4.966298	10.664530	0.934408
-4.966299	10.664530	1.024051
-4.966300	10.664530	1.113404
-4.966301	10.664529	1.202562
-4.966302	10.664529	1.291625
-4.966302	10.664529	1.380687
-4.966303	10.664529	1.469846
-4.966304	10.664529	1.559199
-4.966305	10.664529	1.648844
-4.966305	10.664528	1.738879
-4.966306	10.664528	1.829406
-4.966307	10.664528	1.920527
-4.966308	10.664528	2.012349
-3.101319	10.688138	0.092670
-3.205526	10.648071	0.092667
-3.318740	10.604541	0.092664
-3.442321	10.557025	0.092661
-3.577914	10.504890	0.092658
-3.727531	10.447364	0.092654
-3.893656	10.383490	0.092650
-4.079393	10.312075	0.092646
-4.288675	10.231608	0.092641
-4.526557	10.140144	0.092635
-4.799648	10.035142	0.092628
-4.962813	9.972407	0.139918
-4.962815	9.972406	0.240419
-4.962817	9.972405	0.339703
-4.962820	9.972404	0.437897
-4.962822	9.972403	0.535124
-4.962825	9.972402	0.631503
-4.962827	9.972401	0.727147
-4.962829	9.972401	0.822168
-4.962832	9.972400	0.916673
-4.962834	9.972399	1.010768
-4.962836	9.972398	1.104558
-4.962839	9.972397	1.198145
-4.962841	9.972396	1.291630
-4.962843	9.972395	1.385116
-4.962845	9.972394	1.478703
-4.962848	9.972393	1.572494
-4.962850	9.972393	1.666591
-4.962852	9.972392	1.761098
-4.962855	9.972391	1.856122
-4.962857	9.972390	1.951769
-4.962859	9.972389	2.048151
-2.951425	10.379352	0.092641
-3.047356	10.322230	0.092636
-3.151579	10.260170	0.092632
-3.265346	10.192428	0.092627
-3.390171	10.118101	0.092621
-3.527908	10.036086	0.092615
-3.680842	9.945021	0.092609
-3.851832	9.843205	0.092601
-4.044499	9.728482	0.092593
-4.263495	9.598081	0.092583
-4.514908	9.448377	0.092573
-4.806850	9.274540	0.092560
-4.958854	9.184030	0.150891
-4.958858	9.184027	0.258630
-4.958862	9.184025	0.365188
-4.958867	9.184022	0.470697
-4.958871	9.184020	0.575285
-4.958875	9.184017	0.679075
-4.958879	9.184015	0.782189
-4.958883	9.184013	0.884744
-4.958887	9.184010	0.986854
-4.958891	9.184008	1.088633
-4.958895	9.184006	1.190191
-4.958899	9.184003	1.291640
-4.958903	9.184001	1.393089
-4.958907	9.183998	1.494648
-4.958911	9.183996	1.596429
-4.958915	9.183994	1.698541
-4.958919	9.183991	1.801099
-4.958923	9.183989	1.904217
-4.958927	9.183986	2.008013
-4.958931	9.183984	2.112606
-2.751443	10.100372	0.092613
-2.836331	10.027840	0.092608
-2.928557	9.949039	0.092602
-3.029228	9.863021	0.092595
-3.139686	9.768642	0.092588
-3.261568	9.664501	0.092579
-3.396900	9.548868	0.092570
-3.548210	9.419583	0.092560
-3.718702	9.273907	0.092549
-3.912495	9.108323	0.092536
-4.134974	8.918227	0.092521
-4.162196	8.894968	0.179681
-4.162198	8.894966	0.276712
-4.162200	8.894965	0.372568
-4.162201	8.894963	0.467371
-4.162203	8.894962	0.561242
-4.162205	8.894960	0.654293
-4.162207	8.894959	0.746634
-4.162209	8.894957	0.838374
-4.162210	8.894956	0.929616
-4.162212	8.894954	1.020462
-4.162214	8.894953	1.111013
-4.162215	8.894951	1.201369
-4.162217	8.894950	1.291626
-4.162219	8.894948	1.381884
-4.162221	8.894947	1.472240
-4.162222	8.894946	1.562792
-4.162224	8.894944	1.653640
-4.162226	8.894943	1.744884
-4.162228	8.894941	1.836626
-4.162229	8.894940	1.928971
-4.162231	8.894938	2.022025
-2.507138	9.859245	0.092589
-2.578534	9.773393	0.092582
-2.656102	9.680121	0.092574
-2.740774	9.578307	0.092566
-2.833676	9.466595	0.092557
-2.936188	9.343328	0.092547
-3.050012	9.206458	0.092535
-3.177276	9.053429	0.092523
-3.296760	8.909753	0.106122
-3.296762	8.909751	0.191254
-3.296764	8.909749	0.275057
-3.296766	8.909746	0.357651
-3.296768	8.909744	0.439150
-3.296770	8.909742	0.519662
-3.296772	8.909739	0.599291
-3.296774	8.909737	0.678135
-3.296776	8.909735	0.756291
-3.296778	8.909733	0.833852
-3.296779	8.909731	0.910907
-3.296781	8.909729	0.987544
-3.296783	8.909726	1.063849
-3.296785	8.909724	1.139906
-3.296786	8.909722	1.215798
-3.296788	8.909720	1.291608
-3.296790	8.909718	1.367419
-3.296792	8.909716	1.443312
-3.296794	8.909714	1.519370
-3.296795	8.909711	1.595677
-3.296797	8.909709	1.672316
-3.296799	8.909707	1.749373
-3.296801	8.909705	1.826937
-3.296803	8.909703	1.905097
-2.225550	9.662928	0.092568
-2.281395	9.566231	0.092560
-2.342067	9.461176	0.092551
-2.408295	9.346501	0.092542
-2.480962	9.220677	0.092531
-2.561145	9.081837	0.092520
-2.650177	8.927677	0.092507
-2.660520	8.909767	0.162158
-2.660522	8.909764	0.239036
-2.660524	8.909761	0.314622
-2.660526	8.909758	0.389028
-2.660528	8.909754	0.462361
-2.660529	8.909751	0.534722
-2.660531	8.909748	0.606206
-2.660533	8.909746	0.676906
-2.660534	8.909743	0.746910
-2.660536	8.909740	0.816303
-2.660538	8.909737	0.885167
-2.660539	8.909734	0.953582
-2.660541	8.909731	1.021626
-2.660543	8.909728	1.089375
-2.660544	8.909726	1.156905
-2.660546	8.909723	1.224288
-2.660547	8.909720	1.291598
-2.660549	8.909717	1.358909
-2.660551	8.909714	1.426292
-2.660552	8.909712	1.493823
-2.660554	8.909709	1.561574
-2.660556	8.909706	1.629620
-2.660557	8.909703	1.698038
-2.660559	8.909700	1.766905
-2.660561	8.909697	1.836302
-1.914800	9.517085	0.092552
-1.953482	9.412331	0.092543
-1.995507	9.298523	0.092534
-2.041381	9.174292	0.092523
-2.091715	9.037983	0.092511
-2.139053	8.909787	0.103042
-2.139054	8.909783	0.176729
-2.139056	8.909779	0.248997
-2.139057	8.909775	0.319963
-2.139059	8.909771	0.389736
-2.139060	8.909767	0.458421
-2.139062	8.909763	0.526115
-2.139063	8.909759	0.592912
-2.139064	8.909756	0.658900
-2.139066	8.909752	0.724163
-2.139067	8.909748	0.788785
-2.139068	8.909745	0.852842
-2.139070	8.909741	0.916411
-2.139071	8.909738	0.979566
-2.139072	8.909734	1.042378
-2.139074	8.909731	1.104918
-2.139075	8.909727	1.167255
-2.139076	8.909723	1.229457
-2.139078	8.909720	1.291592
-2.139079	8.909716	1.353727
-2.139080	8.909713	1.415930
-2.139081	8.909709	1.478268
-2.139083	8.909706	1.540810
-2.139084	8.909702	1.603624
-2.139085	8.909699	1.666782
-2.139087	8.909695	1.730354
-2.139088	8.909692	1.794415
-1.593784	9.427796	0.092541
-1.614735	9.318110	0.092532
-1.637496	9.198942	0.092521
-1.662343	9.068860	0.092510
-1.689604	8.926132	0.092497
-1.692724	8.909801	0.156475
-1.692725	8.909796	0.226849
-1.692726	8.909791	0.295868
-1.692726	8.909787	0.363643
-1.692727	8.909782	0.430279
-1.692728	8.909777	0.495876
-1.692729	8.909772	0.560526
-1.692730	8.909768	0.624320
-1.692731	8.909763	0.687340
-1.692732	8.909759	0.749670
-1.692733	8.909754	0.811386
-1.692733	8.909750	0.872563
-1.692734	8.909746	0.933274
-1.692735	8.909741	0.993590
-1.692736	8.909737	1.053578
-1.692737	8.909733	1.113306
-1.692738	8.909728	1.172841
-1.692738	8.909724	1.232247
-1.692739	8.909720	1.291588
-1.692740	8.909716	1.350930
-1.692741	8.909711	1.410337
-1.692742	8.909707	1.469873
-1.692742	8.909703	1.529603
-1.692743	8.909699	1.589594
-1.692744	8.909694	1.649913
-1.692745	8.909690	1.710627
-1.692746	8.909686	1.771809
-1.252352	9.392240	0.092535
-1.254444	9.280589	0.092525
-1.256717	9.159287	0.092514
-1.259197	9.026875	0.092502
-1.261390	8.909824	0.105859
-1.261390	8.909818	0.176442
-1.261390	8.909812	0.245577
-1.261390	8.909806	0.313382
-1.261390	8.909800	0.379964
-1.261391	8.909794	0.445428
-1.261391	8.909789	0.509870
-1.261391	8.909783	0.573384
-1.261391	8.909778	0.636055
-1.261391	8.909772	0.697967
-1.261391	8.909767	0.759200
-1.261391	8.909761	0.819830
-1.261391	8.909756	0.879931
-1.261391	8.909751	0.939574
-1.261391	8.909746	0.998829
-1.261392	8.909741	1.057762
-1.261392	8.909735	1.116440
-1.261392	8.909730	1.174928
-1.261392	8.909725	1.233289
-1.261392	8.909720	1.291587
-1.261392	8.909715	1.349885
-1.261392	8.909710	1.408248
-1.261392	8.909705	1.466737
-1.261392	8.909699	1.525417
-1.261392	8.909694	1.584353
-1.261393	8.909689	1.643611
-1.261393	8.909684	1.703258
-1.261393	8.909678	1.763365
-0.909827	9.414970	0.092534
-0.892999	9.304574	0.092524
-0.874716	9.184636	0.092513
-0.854759	9.053713	0.092501
-0.832862	8.910062	0.092488
-0.832828	8.909838	0.163769
-0.832827	8.909830	0.233689
-0.832826	8.909823	0.302263
-0.832825	8.909816	0.369602
-0.832824	8.909809	0.435810
-0.832823	8.909802	0.500985
-0.832822	8.909796	0.565219
-0.832821	8.909789	0.628603
-0.832820	8.909783	0.691218
-0.832819	8.909776	0.753147
-0.832818	8.909770	0.814467
-0.832817	8.909763	0.875251
-0.832816	8.909757	0.935572
-0.832815	8.909751	0.995501
-0.832814	8.909745	1.055104
-0.832813	8.909738	1.114449
-0.832812	8.909732	1.173602
-0.832811	8.909726	1.232627
-0.832810	8.909720	1.291588
-0.832809	8.909714	1.350549
-0.832808	8.909708	1.409575
-0.832807	8.909702	1.468730
-0.832806	8.909695	1.528077
-0.832805	8.909689	1.587684
-0.832804	8.909683	1.647616
-0.832804	8.909677	1.707943
-0.832803	8.909670	1.768733
-0.566503	9.498546	0.092538
-0.530711	9.392767	0.092528
-0.491826	9.277844	0.092517
-0.449380	9.152397	0.092506
-0.402807	9.014753	0.092493
-0.368736	8.914059	0.116541
-0.368733	8.914050	0.189389
-0.368730	8.914041	0.260834
-0.368727	8.914033	0.330993
-0.368724	8.914025	0.399973
-0.368722	8.914017	0.467876
-0.368719	8.914008	0.534801
-0.368716	8.914001	0.600838
-0.368714	8.913993	0.666076
-0.368711	8.913985	0.730599
-0.368708	8.913977	0.794486
-0.368706	8.913970	0.857816
-0.368703	8.913962	0.920664
-0.368701	8.913955	0.983102
-0.368698	8.913947	1.045202
-0.368696	8.913940	1.107032
-0.368693	8.913932	1.168663
-0.368691	8.913925	1.230160
-0.368688	8.913918	1.291591
-0.368686	8.913910	1.353022
-0.368683	8.913903	1.414521
-0.368681	8.913896	1.476153
-0.368678	8.913888	1.537987
-0.368676	8.913881	1.600091
-0.368673	8.913873	1.662534
-0.368671	8.913866	1.725388
-0.368668	8.913858	1.788724
-0.260757	9.631001	0.092547
-0.208078	9.532539	0.092538
-0.150846	9.425566	0.092527
-0.088372	9.308796	0.092516
-0.019825	9.180674	0.092504
0.055813	9.039299	0.092491
0.125055	8.909880	0.105530
0.125060	8.909870	0.182411
0.125066	8.909860	0.257907
0.125071	8.909850	0.332135
0.125076	8.909840	0.405205
0.125081	8.909830	0.477221
0.125087	8.909820	0.548283
0.125092	8.909811	0.618485
0.125097	8.909802	0.687916
0.125102	8.909792	0.756665
0.125107	8.909783	0.824814
0.125111	8.909774	0.892444
0.125116	8.909765	0.959633
0.125121	8.909756	1.026458
0.125126	8.909747	1.092994
0.125131	8.909738	1.159314
0.125136	8.909729	1.225491
0.125140	8.909720	1.291597
0.125145	8.909711	1.357703
0.125150	8.909702	1.423882
0.125155	8.909693	1.490204
0.125160	8.909684	1.556744
0.125164	8.909675	1.623574
0.125169	8.909666	1.690770
0.125174	8.909657	1.758407
0.125179	8.909648	1.826565
0.035028	9.824298	0.092561
0.104043	9.736513	0.092552
0.179025	9.641141	0.092543
0.260872	9.537035	0.092533
0.350677	9.422808	0.092522
0.449772	9.296765	0.092510
0.559802	9.156812	0.092496
0.682824	9.000335	0.092481
0.746246	8.919664	0.136750
0.746256	8.919652	0.219678
0.746266	8.919640	0.301312
0.746275	8.919628	0.381769
0.746284	8.919616	0.461160
0.746293	8.919605	0.539591
0.746302	8.919593	0.617161
0.746311	8.919582	0.693968
0.746320	8.919570	0.770105
0.746329	8.919559	0.845662
0.746338	8.919548	0.920727
0.746347	8.919537	0.995386
0.746355	8.919526	1.069721
0.746364	8.919515	1.143816
0.746373	8.919504	1.217751
0.746381	8.919493	1.291606
0.746390	8.919482	1.365462
0.746398	8.919471	1.439399
0.746407	8.919460	1.513498
0.746416	8.919449	1.587838
0.746424	8.919438	1.662504
0.746433	8.919427	1.737577
0.746442	8.919416	1.813145
0.746451	8.919404	1.889293
-3.166912	10.889816	0.092688
-3.274740	10.860888	0.092686
-3.391888	10.829460	0.092684
-3.519762	10.795154	0.092682
-3.660066	10.757513	0.092680
-3.814880	10.715980	0.092678
-3.986776	10.669864	0.092676
-4.178965	10.618303	0.092673
-4.395515	10.560207	0.092670
-4.641658	10.494173	0.092666
-4.924232	10.418364	0.092662
-4.969983	10.406090	0.176494
-4.969984	10.406089	0.273803
-4.969986	10.406089	0.369934
-4.969987	10.406089	0.465010
-4.969989	10.406088	0.559149
-4.969990	10.406088	0.652467
-4.969992	10.406087	0.745073
-4.969993	10.406087	0.837076
-4.969994	10.406087	0.928579
-4.969996	10.406086	1.019686
-4.969997	10.406086	1.110496
-4.969999	10.406086	1.201110
-4.970000	10.406085	1.291626
-4.970001	10.406085	1.382143
-4.970003	10.406084	1.472757
-4.970004	10.406084	1.563569
-4.970006	10.406084	1.654677
-4.970007	10.406083	1.746182
-4.970008	10.406083	1.838186
-4.970010	10.406083	1.930795
-4.970011	10.406082	2.024116
-3.050195	10.567031	0.092658
-3.151580	10.520274	0.092655
-3.261728	10.469477	0.092652
-3.381961	10.414029	0.092648
-3.513882	10.353190	0.092644
-3.659448	10.286059	0.092639
-3.821074	10.211522	0.092634
-4.001783	10.128184	0.092628
-4.205398	10.034281	0.092622
-4.436840	9.927547	0.092615
-4.702538	9.805014	0.092606
-4.961371	9.685647	0.108291
-4.961374	9.685645	0.211551
-4.961377	9.685644	0.313562
-4.961380	9.685643	0.414453
-4.961383	9.685641	0.514350
-4.961386	9.685640	0.613376
-4.961389	9.685638	0.711647
-4.961392	9.685637	0.809277
-4.961395	9.685636	0.906378
-4.961398	9.685634	1.003057
-4.961401	9.685633	1.099423
-4.961404	9.685632	1.195580
-4.961407	9.685630	1.291633
-4.961410	9.685629	1.387687
-4.961413	9.685628	1.483845
-4.961416	9.685626	1.580212
-4.961419	9.685625	1.676893
-4.961422	9.685624	1.773996
-4.961425	9.685622	1.871630
-4.961428	9.685621	1.969904
-4.961431	9.685619	2.068934
-2.880546	10.268638	0.092630
-2.972564	10.205400	0.092625
-3.072535	10.136696	0.092620
-3.181660	10.061702	0.092614
-3.301394	9.979417	0.092608
-3.433512	9.888621	0.092601
-3.580207	9.787807	0.092594
-3.744223	9.675090	0.092585
-3.929031	9.548084	0.092576
-4.139096	9.403720	0.092565
-4.380254	9.237988	0.092552
-4.660291	9.045537	0.092538
-4.884651	8.891350	0.125921
-4.884652	8.891348	0.236020
-4.884654	8.891347	0.344911
-4.884656	8.891346	0.452730
-4.884657	8.891345	0.559607
-4.884659	8.891344	0.665670
-4.884660	8.891343	0.771042
-4.884662	8.891342	0.875841
-4.884663	8.891341	0.980186
-4.884665	8.891340	1.084193
-4.884666	8.891339	1.187974
-4.884668	8.891338	1.291643
-4.884669	8.891337	1.395312
-4.884671	8.891336	1.499094
-4.884673	8.891334	1.603101
-4.884674	8.891333	1.707448
-4.884676	8.891332	1.812249
-4.884677	8.891331	1.917623
-4.884679	8.891330	2.023689
-4.884680	8.891329	2.130570
-2.662852	10.003244	0.092604
-2.742848	9.925347	0.092598
-2.829759	9.840717	0.092591
-2.924628	9.748336	0.092584
-3.028720	9.646976	0.092576
-3.143579	9.535130	0.092567
-3.271111	9.410944	0.092557
-3.413702	9.272094	0.092546
-3.574370	9.115642	0.092533
-3.756996	8.937807	0.092519
-3.799120	8.896788	0.165492
-3.799122	8.896787	0.256989
-3.799124	8.896785	0.347273
-3.799126	8.896783	0.436464
-3.799128	8.896781	0.524676
-3.799129	8.896779	0.612019
-3.799131	8.896777	0.698600
-3.799133	8.896776	0.784521
-3.799135	8.896774	0.869881
-3.799137	8.896772	0.954779
-3.799138	8.896770	1.039309
-3.799140	8.896769	1.123564
-3.799142	8.896767	1.207637
-3.799144	8.896765	1.291618
-3.799146	8.896764	1.375601
-3.799147	8.896762	1.459674
-3.799149	8.896760	1.543930
-3.799151	8.896758	1.628461
-3.799153	8.896757	1.713361
-3.799154	8.896755	1.798724
-3.799156	8.896753	1.884648
-3.799158	8.896751	1.971233
-2.403387	9.778506	0.092581
-2.469054	9.688194	0.092574
-2.540397	9.590076	0.092566
-2.618273	9.482973	0.092557
-2.703720	9.365457	0.092547
-2.798005	9.235786	0.092536
-2.902695	9.091806	0.092525
-3.019746	8.930825	0.092511
-3.041730	8.900589	0.160524
-3.041732	8.900587	0.241748
-3.041734	8.900584	0.321705
-3.041736	8.900582	0.400509
-3.041738	8.900579	0.478268
-3.041740	8.900576	0.555084
-3.041742	8.900574	0.631059
-3.041743	8.900571	0.706285
-3.041745	8.900569	0.780854
-3.041747	8.900567	0.854855
-3.041749	8.900564	0.928374
-3.041750	8.900562	1.001494
-3.041752	8.900559	1.074297
-3.041754	8.900557	1.146863
-3.041756	8.900555	1.219273
-3.041757	8.900552	1.291604
-3.041759	8.900550	1.363936
-3.041761	8.900548	1.436346
-3.041763	8.900545	1.508914
-3.041764	8.900543	1.581718
-3.041766	8.900540	1.654840
-3.041768	8.900538	1.728362
-3.041770	8.900535	1.802366
-3.041771	8.900533	1.876939
-2.109633	9.600907	0.092562
-2.159075	9.500784	0.092554
-2.212792	9.392007	0.092545
-2.271427	9.273268	0.092535
-2.335763	9.142985	0.092523
-2.406754	8.999226	0.092511
-2.454003	8.903546	0.122284
-2.454005	8.903542	0.198081
-2.454007	8.903539	0.272513
-2.454008	8.903535	0.345695
-2.454010	8.903532	0.417734
-2.454012	8.903528	0.488735
-2.454013	8.903525	0.558794
-2.454015	8.903522	0.628004
-2.454016	8.903519	0.696455
-2.454018	8.903516	0.764233
-2.454020	8.903512	0.831418
-2.454021	8.903509	0.898092
-2.454023	8.903506	0.964331
-2.454024	8.903503	1.030211
-2.454026	8.903500	1.095805
-2.454027	8.903497	1.161186
-2.454029	8.903494	1.226426
-2.454030	8.903491	1.291595
-2.454032	8.903488	1.356765
-2.454033	8.903485	1.422006
-2.454035	8.903482	1.487388
-2.454036	8.903479	1.552984
-2.454038	8.903476	1.618866
-2.454039	8.903473	1.685108
-2.454041	8.903469	1.751785
-2.454042	8.903466	1.818974
-1.790059	9.475571	0.092548
-1.821851	9.368524	0.092539
-1.856390	9.252224	0.092528
-1.894093	9.125273	0.092517
-1.935462	8.985980	0.092505
-1.959204	8.906037	0.126753
-1.959205	8.906033	0.198970
-1.959206	8.906028	0.269796
-1.959208	8.906024	0.339346
-1.959209	8.906020	0.407728
-1.959210	8.906016	0.475042
-1.959211	8.906011	0.541386
-1.959212	8.906007	0.606849
-1.959214	8.906003	0.671521
-1.959215	8.905999	0.735482
-1.959216	8.905995	0.798814
-1.959217	8.905992	0.861593
-1.959218	8.905988	0.923894
-1.959219	8.905984	0.985789
-1.959221	8.905980	1.047348
-1.959222	8.905976	1.108640
-1.959223	8.905973	1.169734
-1.959224	8.905969	1.230695
-1.959225	8.905965	1.291590
-1.959226	8.905961	1.352486
-1.959227	8.905957	1.413448
-1.959228	8.905954	1.474542
-1.959230	8.905950	1.535837
-1.959231	8.905946	1.597398
-1.959232	8.905942	1.659296
-1.959233	8.905938	1.721600
-1.959234	8.905934	1.784383
-1.453882	9.406115	0.092538
-1.467105	9.295231	0.092528
-1.481472	9.174762	0.092518
-1.497153	9.043260	0.092506
-1.513249	8.908288	0.096935
-1.513250	8.908282	0.168050
-1.513250	8.908277	0.237706
-1.513251	8.908272	0.306020
-1.513252	8.908266	0.373104
-1.513252	8.908261	0.439061
-1.513253	8.908256	0.503989
-1.513253	8.908251	0.567980
-1.513254	8.908246	0.631122
-1.513255	8.908241	0.693501
-1.513255	8.908237	0.755195
-1.513256	8.908232	0.816281
-1.513256	8.908227	0.876835
-1.513257	8.908222	0.936927
-1.513257	8.908218	0.996627
-1.513258	8.908213	1.056004
-1.513259	8.908209	1.115123
-1.513259	8.908204	1.174051
-1.513260	8.908199	1.232851
-1.513260	8.908195	1.291587
-1.513261	8.908190	1.350325
-1.513261	8.908186	1.409126
-1.513262	8.908181	1.468054
-1.513262	8.908176	1.527176
-1.513263	8.908172	1.586555
-1.513263	8.908167	1.646259
-1.513264	8.908162	1.706355
-1.513265	8.908158	1.766913
-1.110798	9.394544	0.092534
-1.105071	9.283020	0.092524
-1.098849	9.161856	0.092513
-1.092057	9.029596	0.092501
-1.085938	8.910443	0.104798
-1.085938	8.910437	0.175444
-1.085938	8.910430	0.244641
-1.085937	8.910424	0.312506
-1.085937	8.910417	0.379148
-1.085937	8.910411	0.444670
-1.085936	8.910405	0.509170
-1.085936	8.910399	0.572740
-1.085936	8.910393	0.635467
-1.085936	8.910387	0.697435
-1.085935	8.910382	0.758723
-1.085935	8.910376	0.819407
-1.085935	8.910370	0.879562
-1.085934	8.910365	0.939259
-1.085934	8.910359	0.998567
-1.085934	8.910353	1.057553
-1.085933	8.910348	1.116283
-1.085933	8.910342	1.174823
-1.085933	8.910337	1.233237
-1.085933	8.910331	1.291587
-1.085932	8.910326	1.349938
-1.085932	8.910320	1.408352
-1.085932	8.910315	1.466894
-1.085931	8.910309	1.525627
-1.085931	8.910304	1.584616
-1.085931	8.910298	1.643927
-1.085931	8.910293	1.703628
-1.085930	8.910287	1.763789
-0.770704	9.441193	0.092535
-0.746191	9.332245	0.092525
-0.719560	9.213881	0.092514
-0.690490	9.084676	0.092502
-0.658593	8.942910	0.092489
-0.651780	8.912628	0.150050
-0.651779	8.912620	0.220821
-0.651777	8.912613	0.290229
-0.651775	8.912605	0.358387
-0.651773	8.912598	0.425400
-0.651772	8.912591	0.491368
-0.651770	8.912583	0.556384
-0.651769	8.912576	0.620538
-0.651767	8.912569	0.683915
-0.651765	8.912562	0.746598
-0.651764	8.912556	0.808663
-0.651762	8.912549	0.870187
-0.651761	8.912542	0.931242
-0.651759	8.912535	0.991899
-0.651758	8.912529	1.052228
-0.651756	8.912522	1.112295
-0.651755	8.912516	1.172167
-0.651753	8.912509	1.231910
-0.651752	8.912502	1.291589
-0.651750	8.912496	1.351268
-0.651749	8.912489	1.411012
-0.651748	8.912483	1.470886
-0.651746	8.912476	1.530956
-0.651745	8.912469	1.591288
-0.651743	8.912463	1.651950
-0.651742	8.912456	1.713010
-0.651740	8.912449	1.774540
-0.443407	9.544714	0.092541
-0.400816	9.441486	0.092531
-0.354544	9.329334	0.092520
-0.304035	9.206911	0.092509
-0.248614	9.072587	0.092496
-0.187461	8.924367	0.092482
-0.183591	8.914985	0.162587
-0.183587	8.914976	0.235770
-0.183583	8.914967	0.307634
-0.183579	8.914958	0.378292
-0.183576	8.914950	0.447847
-0.183572	8.914941	0.516398
-0.183569	8.914932	0.584042
-0.183565	8.914924	0.650866
-0.183562	8.914916	0.716957
-0.183559	8.914908	0.782399
-0.183555	8.914899	0.847269
-0.183552	8.914891	0.911645
-0.183548	8.914883	0.975601
-0.183545	8.914875	1.039211
-0.183542	8.914867	1.102546
-0.183539	8.914859	1.165675
-0.183535	8.914851	1.228668
-0.183532	8.914843	1.291593
-0.183529	8.914836	1.354518
-0.183526	8.914828	1.417512
-0.183522	8.914820	1.480644
-0.183519	8.914812	1.543982
-0.183516	8.914804	1.607596
-0.183512	8.914796	1.671558
-0.183509	8.914788	1.735941
-0.183506	8.914779	1.800818
-0.146919	9.696764	0.092552
-0.087952	9.601935	0.092543
-0.023889	9.498908	0.092533
0.046041	9.386447	0.092522
0.122770	9.263052	0.092510
0.207436	9.126893	0.092497
0.301445	8.975709	0.092483
0.342377	8.909882	0.139937
0.342384	8.909871	0.218324
0.342391	8.909860	0.295395
0.342398	8.909849	0.371263
0.342404	8.909839	0.446037
0.342411	8.909829	0.519820
0.342417	8.909818	0.592710
0.342423	8.909808	0.664800
0.342430	8.909798	0.736181
0.342436	8.909788	0.806940
0.342442	8.909778	0.877160
0.342448	8.909768	0.946922
0.342454	8.909759	1.016306
0.342460	8.909749	1.085390
0.342466	8.909739	1.154250
0.342472	8.909730	1.222962
0.342478	8.909720	1.291600
0.342484	8.909710	1.360238
0.342490	8.909701	1.428951
0.342496	8.909691	1.497814
0.342502	8.909681	1.566903
0.342508	8.909672	1.636293
0.342514	8.909662	1.706062
0.342521	8.909652	1.776290
0.342527	8.909642	1.847058
0.135674	9.908877	0.092568
0.210249	9.825765	0.092559
0.291269	9.735469	0.092550
0.379709	9.636904	0.092541
0.476747	9.528756	0.092530
0.583823	9.409422	0.092518
0.702714	9.276919	0.092505
0.835644	9.128770	0.092491
0.985427	8.961839	0.092474
1.022030	8.921045	0.160070
1.022042	8.921032	0.246243
1.022053	8.921019	0.331175
1.022065	8.921006	0.414981
1.022076	8.920994	0.497772
1.022087	8.920981	0.579656
1.022099	8.920969	0.660734
1.022110	8.920956	0.741106
1.022121	8.920944	0.820865
1.022131	8.920932	0.900105
1.022142	8.920920	0.978916
1.022153	8.920908	1.057385
1.022164	8.920896	1.135601
1.022174	8.920884	1.213648
1.022185	8.920872	1.291611
1.022196	8.920860	1.369575
1.022207	8.920848	1.447625
1.022217	8.920836	1.525844
1.022228	8.920824	1.604320
1.022239	8.920812	1.683139
1.022250	8.920800	1.762388
1.022261	8.920788	1.842159
1.022272	8.920776	1.922543
0.370759	10.159012	0.092588
0.458317	10.089717	0.092581
0.553442	10.014432	0.092573
0.657279	9.932253	0.092564
0.771210	9.842085	0.092555
0.896925	9.742591	0.092545
1.036514	9.632117	0.092534
1.192584	9.508600	0.092521
1.368440	9.369423	0.092507
1.568331	9.211224	0.092491
1.797813	9.029606	0.092472
1.929233	8.925597	0.141843
1.929254	8.925581	0.242169
1.929275	8.925564	0.341282
1.929295	8.925548	0.439309
1.929315	8.925532	0.536371
1.929335	8.925517	0.632587
1.929355	8.925501	0.728071
1.929375	8.925485	0.822933
1.929394	8.925470	0.917282
1.929414	8.925455	1.011223
1.929433	8.925439	1.104860
1.929452	8.925424	1.198295
1.929472	8.925409	1.291630
1.929491	8.925393	1.384966
1.929510	8.925378	1.478405
1.929530	8.925363	1.572048
1.929549	8.925347	1.665998
1.929569	8.925332	1.760359
1.929588	8.925316	1.855235
1.929608	8.925300	1.950736
1.929628	8.925285	2.046972
0.560128	10.445311	0.092611
0.658143	10.391830	0.092606
0.764629	10.333727	0.092599
0.880867	10.270303	0.092593
1.008404	10.200713	0.092585
1.149133	10.123926	0.092577
1.305391	10.038665	0.092568
1.480098	9.943338	0.092557
1.676953	9.835925	0.092546
1.900712	9.713833	0.092533
2.038960	9.638400	0.134700
2.038956	9.638402	0.228701
2.038953	9.638404	0.321456
2.038949	9.638405	0.413086
2.038946	9.638407	0.503711
2.038942	9.638409	0.593444
2.038939	9.638411	0.682392
2.038936	9.638413	0.770663
2.038933	9.638415	0.858358
2.038929	9.638416	0.945576
2.038926	9.638418	1.032416
2.038923	9.638420	1.118974
2.038920	9.638422	1.205345
2.038917	9.638423	1.291621
2.038913	9.638425	1.377898
2.038910	9.638427	1.464268
2.038907	9.638429	1.550826
2.038904	9.638430	1.637665
2.038900	9.638432	1.724884
2.038897	9.638434	1.812578
2.038894	9.638436	1.900847
2.038891	9.638437	1.989795
0.698323	10.759516	0.092638
0.803968	10.723390	0.092634
0.918744	10.684142	0.092629
1.044030	10.641300	0.092624
1.181494	10.594293	0.092619
1.333177	10.542424	0.092612
1.501597	10.484832	0.092606
1.689900	10.420440	0.092598
1.902075	10.347886	0.092589
2.035623	10.302218	0.131008
2.035621	10.302219	0.219402
2.035619	10.302220	0.306520
2.035617	10.302220	0.392482
2.035616	10.302221	0.477404
2.035614	10.302222	0.561393
2.035612	10.302222	0.644555
2.035610	10.302223	0.726991
2.035608	10.302224	0.808798
2.035606	10.302224	0.890072
2.035605	10.302225	0.970905
2.035603	10.302225	1.051387
2.035601	10.302226	1.131607
2.035599	10.302227	1.211654
2.035598	10.302227	1.291614
2.035596	10.302228	1.371573
2.035594	10.302228	1.451620
2.035592	10.302229	1.531841
2.035590	10.302230	1.612323
2.035589	10.302230	1.693156
2.035587	10.302231	1.774430
2.035585	10.302231	1.856237
2.035583	10.302232	1.938673
0.781363	11.092565	0.092667
0.891591	11.074834	0.092665
1.011346	11.055571	0.092662
1.142067	11.034543	0.092659
1.285494	11.011472	0.092655
1.443756	10.986015	0.092651
1.619479	10.957748	0.092647
1.815948	10.926145	0.092642
2.032660	10.891285	0.094356
2.032659	10.891285	0.180334
2.032659	10.891285	0.264970
2.032658	10.891285	0.348385
2.032658	10.891285	0.430693
2.032657	10.891285	0.512005
2.032657	10.891285	0.592424
2.032656	10.891286	0.672051
2.032656	10.891286	0.750983
2.032655	10.891286	0.829314
2.032655	10.891286	0.907133
2.032654	10.891286	0.984530
2.032654	10.891286	1.061592
2.032653	10.891286	1.138403
2.032653	10.891286	1.215048
2.032652	10.891286	1.291609
2.032652	10.891286	1.368171
2.032651	10.891286	1.444816
2.032651	10.891286	1.521628
2.032650	10.891287	1.598690
2.032650	10.891287	1.676088
2.032649	10.891287	1.753908
2.032649	10.891287	1.832239
2.032648	10.891287	1.911173
0.806855	11.434854	0.092699
0.918488	11.436027	0.092698
1.039769	11.437302	0.092697
1.172155	11.438693	0.092696
1.317408	11.440219	0.092694
1.477685	11.441904	0.092693
1.655644	11.443774	0.092691
1.854613	11.445865	0.092690
2.029988	11.447708	0.110457
2.029988	11.447708	0.195278
2.029989	11.447708	0.278776
2.029990	11.447708	0.361068
2.029991	11.447708	0.442270
2.029992	11.447708	0.522487
2.029993	11.447708	0.601825
2.029994	11.447708	0.680381
2.029994	11.447708	0.758252
2.029995	11.447708	0.835528
2.029996	11.447708	0.912301
2.029997	11.447708	0.988658
2.029998	11.447708	1.064683
2.029998	11.447708	1.140461
2.029999	11.447708	1.216076
2.030000	11.447708	1.291608
2.030001	11.447708	1.367141
2.030002	11.447708	1.442755
2.030002	11.447708	1.518534
2.030003	11.447708	1.594561
2.030004	11.447708	1.670918
2.030005	11.447708	1.747693
2.030006	11.447708	1.824971
2.030006	11.447708	1.902844
0.774073	11.776513	0.092729
0.883893	11.796554	0.092729
1.003203	11.818328	0.092730
1.133438	11.842095	0.092731
1.276331	11.868172	0.092732
1.434002	11.896946	0.092733
1.609068	11.928895	0.092734
1.804800	11.964615	0.092735
2.275912	12.050590	0.000022
2.545976	12.099876	0.000024
2.856009	12.156455	0.000026
3.216014	12.222154	0.000028
3.639631	12.299462	0.000031
4.145954	12.391863	0.000034
4.762567	12.504391	0.000038
5.530844	12.644598	0.000043
6.515802	12.824347	0.000050
7.825809	13.063417	0.000058
9.655946	13.397407	0.000070
12.396413	13.897527	0.000087
16.957842	14.729963	0.000117
26.073000	16.393430	0.000175
53.416155	21.383408	0.000351
0.830790	12.161372	0.000047
0.943739	12.202667	0.000049
1.066449	12.247530	0.000052
1.200394	12.296501	0.000055
1.347357	12.350231	0.000059
1.509518	12.409518	0.000062
1.689569	12.475346	0.000066
1.890874	12.548943	0.000071
2.117693	12.631870	0.000076
2.375504	12.726126	0.000082
2.671468	12.834332	0.000089
3.015134	12.959977	0.000097
3.419520	13.107823	0.000106
3.902853	13.284531	0.000117
4.491460	13.499729	0.000130
5.224830	13.767852	0.000147
6.165017	14.111588	0.000169
7.415445	14.568749	0.000197
9.162280	15.207399	0.000237
11.777868	16.163669	0.000297
16.131062	17.755215	0.000396
24.828682	20.935100	0.000595
50.908001	30.469806	0.001191
0.674752	12.496590	0.000079
0.779081	12.556395	0.000084
0.892426	12.621368	0.000088
1.016147	12.692290	0.000094
1.151894	12.770104	0.000099
1.301677	12.855966	0.000106
1.467984	12.951299	0.000112
1.653922	13.057885	0.000120
1.863426	13.177980	0.000129
2.101553	13.314483	0.000139
2.374920	13.471187	0.000151
2.692342	13.653145	0.000164
3.065846	13.867250	0.000180
3.512262	14.123152	0.000198
4.055905	14.434788	0.000221
4.733240	14.823061	0.000249
5.601572	15.320820	0.000286
6.756404	15.982811	0.000334
8.369632	16.907571	0.000402
10.785037	18.292168	0.000503
14.804716	20.596392	0.000672
22.834689	25.199461	0.001009
46.901801	38.995592	0.002018
0.464260	12.800572	0.000109
0.556963	12.877162	0.000115
0.657676	12.960370	0.000121
0.767610	13.051196	0.000128
0.888228	13.150849	0.000136
1.021318	13.260807	0.000145
1.169090	13.382895	0.000154
1.334305	13.519393	0.000165
1.520457	13.673190	0.000177
1.732042	13.847999	0.000190
1.974936	14.048675	0.000206
2.256973	14.281692	0.000224
2.588837	14.555874	0.000246
2.985482	14.883577	0.000272
3.468506	15.282647	0.000303
4.070308	15.779849	0.000342
4.841793	16.417241	0.000392
5.867798	17.264916	0.000458
7.301017	18.449025	0.000550
9.446799	20.221847	0.000689
13.017499	23.171920	0.000920
20.149532	29.064327	0.001381
41.517144	46.718014	0.002763
0.205383	13.064558	0.000135
0.283789	13.155724	0.000142
0.368969	13.254768	0.000150
0.461948	13.362878	0.000159
0.563963	13.481495	0.000169
0.676526	13.612378	0.000179
0.801506	13.757698	0.000191
0.941237	13.920170	0.000204
1.098676	14.103232	0.000219
1.277624	14.311303	0.000236
1.483050	14.550162	0.000256
1.721581	14.827513	0.000278
2.002250	15.153860	0.000305
2.337703	15.543906	0.000337
2.746205	16.018892	0.000376
3.255153	16.610669	0.000424
3.907592	17.369291	0.000486
4.775259	18.378168	0.000568
5.987259	19.787418	0.000683
7.801760	21.897223	0.000855
10.820982	25.407815	0.001142
16.850726	32.418882	0.001714
34.909668	53.416864	0.003427
-0.094414	13.280944	0.000156
-0.032564	13.384057	0.000165
0.034630	13.496080	0.000174
0.107975	13.618358	0.000185
0.188448	13.752518	0.000196
0.277242	13.900551	0.000208
0.375830	14.064913	0.000222
0.486054	14.248674	0.000237
0.610246	14.455722	0.000255
0.751405	14.691056	0.000274
0.913449	14.961209	0.000297
1.101606	15.274896	0.000323
1.323001	15.643996	0.000354
1.587608	16.085137	0.000391
1.909834	16.622339	0.000436
2.311288	17.291624	0.000492
2.825918	18.149594	0.000564
3.510304	19.290571	0.000660
4.466264	20.884307	0.000793
5.897393	23.270223	0.000993
8.278571	27.240019	0.001325
13.033557	35.167323	0.001989
27.270573	58.902655	0.003976
-0.426490	13.443494	0.000174
-0.382978	13.555581	0.000184
-0.335706	13.677353	0.000194
-0.284107	13.810273	0.000206
-0.227494	13.956109	0.000218
-0.165027	14.117025	0.000232
-0.095669	14.295690	0.000247
-0.018126	14.495442	0.000265
0.069243	14.720507	0.000284
0.168548	14.976317	0.000306
0.282546	15.269977	0.000331
0.414913	15.610956	0.000360
0.570662	16.012167	0.000395
0.756809	16.491684	0.000436
0.983489	17.075614	0.000486
1.265901	17.803110	0.000548
1.627926	18.735691	0.000629
2.109361	19.975872	0.000735
2.781823	21.708142	0.000884
3.788509	24.301376	0.001106
5.463400	28.615913	0.001477
8.807702	37.230872	0.002216
18.818608	63.019073	0.004430
-0.781273	13.547526	0.000187
-0.757351	13.665356	0.000197
-0.731363	13.793368	0.000209
-0.702996	13.933098	0.000221
-0.671873	14.086406	0.000234
-0.637531	14.255566	0.000249
-0.599402	14.443385	0.000266
-0.556772	14.653370	0.000284
-0.508741	14.889964	0.000305
-0.454148	15.158879	0.000328
-0.391477	15.467580	0.000355
-0.318709	15.826024	0.000387
-0.233086	16.247783	0.000424
-0.130753	16.751857	0.000468
-0.006138	17.365687	0.000522
0.149115	18.130430	0.000589
0.348132	19.110750	0.000675
0.612790	20.414402	0.000789
0.982456	22.235302	0.000949
1.535838	24.961156	0.001188
2.456507	29.496190	0.001586
4.294717	38.550848	0.002379
9.796324	65.650676	0.004756
-1.148538	13.590044	0.000195
-1.144896	13.710222	0.000205
-1.140940	13.840783	0.000217
-1.136622	13.983296	0.000230
-1.131884	14.139658	0.000244
-1.126656	14.312187	0.000259
-1.120852	14.503746	0.000276
-1.114363	14.717912	0.000295
-1.107051	14.959218	0.000317
-1.098741	15.233486	0.000341
-1.089201	15.548334	0.000370
-1.078124	15.913914	0.000402
-1.065090	16.344068	0.000441
-1.049512	16.858174	0.000487
-1.030543	17.484220	0.000543
-1.006910	18.264178	0.000612
-0.976615	19.263997	0.000702
-0.936329	20.593572	0.000821
-0.880059	22.450664	0.000987
-0.795824	25.230663	0.001235
-0.655685	29.855688	0.001649
-0.375892	39.089682	0.002474
0.461420	66.723538	0.004945
-1.506916	13.571313	0.000196
-1.523063	13.690457	0.000207
-1.540606	13.819894	0.000219
-1.559755	13.961180	0.000232
-1.580764	14.116196	0.000246
-1.603945	14.287240	0.000262
-1.629684	14.477150	0.000279
-1.658460	14.689473	0.000298
-1.690882	14.928700	0.000320
-1.727733	15.200608	0.000345
-1.770037	15.512745	0.000373
-1.819157	15.875176	0.000406
-1.876954	16.301627	0.000445
-1.946031	16.811306	0.000491
-2.030147	17.431960	0.000548
-2.134944	18.205200	0.000618
-2.269282	19.196407	0.000709
-2.447926	20.514526	0.000829
-2.697448	22.355613	0.000996
-3.070971	25.111646	0.001247
-3.692392	29.696776	0.001664
-4.933063	38.851034	0.002498
-8.645835	66.245605	0.004992
-1.867747	13.490741	0.000193
-1.903819	13.605436	0.000203
-1.943007	13.730041	0.000215
-1.985783	13.866052	0.000227
-2.032715	14.015280	0.000241
-2.084501	14.179937	0.000257
-2.141998	14.362756	0.000273
-2.206281	14.567152	0.000292
-2.278709	14.797448	0.000314
-2.361032	15.059204	0.000338
-2.455535	15.359687	0.000366
-2.565266	15.708589	0.000398
-2.694378	16.119118	0.000436
-2.848690	16.609771	0.000482
-3.036601	17.207256	0.000537
-3.270709	17.951633	0.000606
-3.570811	18.905843	0.000695
-3.969891	20.174767	0.000813
-4.527310	21.947149	0.000977
-5.361748	24.600349	0.001223
-6.749993	29.014443	0.001632
-9.521688	37.827391	0.002450
-17.816539	64.201891	0.004896
-2.219421	13.345293	0.000183
-2.274912	13.451957	0.000193
-2.335197	13.567837	0.000204
-2.401001	13.694325	0.000216
-2.473200	13.833105	0.000230
-2.552864	13.986234	0.000244
-2.641315	14.156254	0.000260
-2.740205	14.346339	0.000278
-2.851627	14.560513	0.000299
-2.978269	14.803943	0.000322
-3.123649	15.083391	0.000348
-3.292455	15.407868	0.000379
-3.491078	15.789660	0.000415
-3.728467	16.245968	0.000458
-4.017546	16.801632	0.000511
-4.377696	17.493909	0.000577
-4.839372	18.381339	0.000661
-5.453321	19.561466	0.000773
-6.310869	21.209837	0.000929
-7.594612	23.677436	0.001164
-9.730411	27.782848	0.001553
-13.994831	35.979878	0.002331
-26.758523	60.514128	0.004659
-2.523069	13.154014	0.000169
-2.595328	13.250117	0.000178
-2.673830	13.354524	0.000188
-2.759519	13.468489	0.000199
-2.853535	13.593529	0.000211
-2.957271	13.731497	0.000225
-3.072451	13.884684	0.000239
-3.201224	14.055951	0.000256
-3.346316	14.248921	0.000275
-3.511228	14.468253	0.000296
-3.700542	14.720037	0.000320
-3.920360	15.012393	0.000349
-4.179009	15.356393	0.000382
-4.488140	15.767533	0.000422
-4.864584	16.268199	0.000470
-5.333583	16.891961	0.000531
-5.934796	17.691567	0.000608
-6.734316	18.754919	0.000711
-7.851083	20.240205	0.000855
-9.522915	22.463720	0.001071
-12.304496	26.163187	0.001429
-17.858711	33.550223	0.002145
-34.486039	55.664357	0.004288
-2.798675	12.907559	0.000149
-2.886153	12.990055	0.000157
-2.981191	13.079679	0.000166
-3.084929	13.177507	0.000176
-3.198748	13.284842	0.000187
-3.324336	13.403276	0.000199
-3.463777	13.534774	0.000212
-3.619676	13.681792	0.000226
-3.795332	13.847442	0.000243
-3.994984	14.035721	0.000262
-4.224179	14.251859	0.000283
-4.490306	14.502827	0.000308
-4.803445	14.798128	0.000338
-5.177705	15.151068	0.000373
-5.633462	15.580863	0.000416
-6.201280	16.116336	0.000469
-6.929181	16.802771	0.000538
-7.897190	17.715638	0.000629
-9.249332	18.990755	0.000756
-11.273592	20.899703	0.000947
-14.641713	24.075959	0.001264
-21.367769	30.418866	0.001897
-41.508324	49.412116	0.003793
-3.034620	12.608944	0.000125
-3.135130	12.674951	0.000132
-3.244324	12.746662	0.000140
-3.363515	12.824938	0.000148
-3.494290	12.910821	0.000157
-3.638587	13.005585	0.000167
-3.798801	13.110802	0.000178
-3.977926	13.228438	0.000190
-4.179751	13.360982	0.000204
-4.409150	13.511634	0.000220
-4.672492	13.684578	0.000238
-4.978273	13.885392	0.000259
-5.338072	14.121682	0.000284
-5.768103	14.404095	0.000314
-6.291781	14.748008	0.000350
-6.944228	15.176487	0.000395
-7.780629	15.725774	0.000452
-8.892951	16.456265	0.000529
-10.446715	17.476664	0.000636
-12.772910	19.004338	0.000796
-16.643657	21.546360	0.001062
-24.374352	26.623314	0.001595
-47.530447	41.830537	0.003189
-3.210653	12.283797	0.000098
-3.320886	12.331850	0.000103
-3.440644	12.384056	0.000109
-3.571366	12.441042	0.000116
-3.714793	12.503565	0.000123
-3.873051	12.572554	0.000130
-4.048767	12.649154	0.000139
-4.245224	12.734795	0.000149
-4.466579	12.831289	0.000160
-4.718176	12.940968	0.000172
-4.978313	13.054368	0.009955
-4.978308	13.054366	0.114093
-4.978303	13.054364	0.216850
-4.978298	13.054362	0.318362
-4.978293	13.054360	0.418760
-4.978288	13.054358	0.518169
-4.978283	13.054355	0.616709
-4.978279	13.054353	0.714498
-4.978274	13.054351	0.811649
-4.978269	13.054349	0.908273
-4.978265	13.054347	1.004477
-4.978260	13.054345	1.100369
-4.978255	13.054343	1.196053
-4.978251	13.054341	1.291633
-4.978246	13.054339	1.387213
-4.978241	13.054337	1.482896
-4.978237	13.054335	1.578787
-4.978232	13.054333	1.674991
-4.978227	13.054331	1.771613
-4.978223	13.054329	1.868763
-4.978218	13.054327	1.966551
-4.978213	13.054325	2.065090
-3.177339	11.896224	0.092779
-3.285735	11.922875	0.092782
-3.403497	11.951830	0.092786
-3.711283	12.027506	0.000080
-3.863229	12.064865	0.000085
-4.030887	12.106088	0.000090
-4.217042	12.151858	0.000096
-4.425170	12.203031	0.000103
-4.659676	12.260690	0.000110
-4.926223	12.326226	0.000119
-4.974710	12.338148	0.082897
-4.974706	12.338147	0.181107
-4.974703	12.338146	0.278015
-4.974700	12.338145	0.373749
-4.974697	12.338145	0.468432
-4.974694	12.338144	0.562183
-4.974691	12.338143	0.655115
-4.974688	12.338142	0.747338
-4.974685	12.338142	0.838960
-4.974682	12.338141	0.930084
-4.974679	12.338140	1.020813
-4.974676	12.338139	1.111247
-4.974673	12.338139	1.201486
-4.974670	12.338138	1.291626
-4.974667	12.338137	1.381766
-4.974664	12.338136	1.472005
-4.974661	12.338136	1.562439
-4.974658	12.338135	1.653168
-4.974655	12.338134	1.744292
-4.974652	12.338133	1.835913
-4.974649	12.338133	1.928136
-4.974646	12.338132	2.021068
-3.230000	11.567270	0.092749
-3.341307	11.575756	0.092751
-3.462233	11.584975	0.092753
-3.594230	11.595038	0.092755
-3.739057	11.606079	0.092757
-3.898861	11.618263	0.092760
-4.076295	11.631790	0.092763
-4.274675	11.646914	0.092766
-4.498198	11.663955	0.092770
-4.752263	11.683324	0.092774
-4.970020	11.699925	0.115914
-4.970018	11.699925	0.211441
-4.970017	11.699925	0.305701
-4.970015	11.699925	0.398820
-4.970013	11.699925	0.490916
-4.970012	11.699925	0.582105
-4.970010	11.699924	0.672498
-4.970009	11.699924	0.762202
-4.970007	11.699924	0.851321
-4.970006	11.699924	0.939957
-4.970004	11.699924	1.028207
-4.970003	11.699924	1.116171
-4.970001	11.699924	1.203945
-4.970000	11.699924	1.291623
-4.969999	11.699924	1.379301
-4.969997	11.699923	1.467075
-4.969996	11.699923	1.555039
-4.969994	11.699923	1.643290
-4.969993	11.699923	1.731926
-4.969991	11.699923	1.821045
-4.969990	11.699923	1.910750
-4.969988	11.699923	2.001144
-3.226994	11.224061	0.092718
-3.338138	11.213593	0.092718
-3.458887	11.202220	0.092718
-3.590692	11.189806	0.092718
-3.735308	11.176185	0.092719
-3.894880	11.161156	0.092719
-4.072058	11.144468	0.092719
-4.270151	11.125810	0.092719
-4.493354	11.104788	0.092719
-4.747055	11.080892	0.092720
-4.970001	11.059894	0.114134
-4.970001	11.059894	0.209805
-4.970000	11.059894	0.304208
-4.970000	11.059894	0.397467
-4.970000	11.059894	0.489702
-4.970000	11.059894	0.581030
-4.970000	11.059894	0.671560
-4.970000	11.059894	0.761399
-4.970000	11.059894	0.850653
-4.970000	11.059894	0.939423
-4.970000	11.059894	1.027808
-4.970000	11.059894	1.115905
-4.970000	11.059894	1.203812
-4.970000	11.059894	1.291623
-4.970000	11.059894	1.379435
-4.970000	11.059894	1.467342
-4.970000	11.059894	1.555440
-4.970000	11.059894	1.643825
-4.970000	11.059894	1.732596
-4.970000	11.059894	1.821851
-4.970000	11.059894	1.911692
-4.970000	11.059894	2.002224
-3.163304	10.876549	0.092687
-3.270934	10.846888	0.092686
-3.387865	10.814663	0.092684
-3.515503	10.779489	0.092682
-3.655547	10.740895	0.092680
-3.810076	10.698309	0.092678
-3.981654	10.651025	0.092675
-4.173488	10.598159	0.092672
-4.389639	10.538591	0.092669
-4.635327	10.470883	0.092665
-4.917378	10.393154	0.092661
-4.964862	10.380069	0.175953
-4.964863	10.380068	0.273310
-4.964865	10.380068	0.369487
-4.964866	10.380068	0.464609
-4.964868	10.380067	0.558794
-4.964869	10.380067	0.652157
-4.964871	10.380066	0.744808
-4.964872	10.380066	0.836855
-4.964874	10.380066	0.928403
-4.964875	10.380065	1.019554
-4.964876	10.380065	1.110408
-4.964878	10.380064	1.201067
-4.964879	10.380064	1.291627
-4.964881	10.380064	1.382187
-4.964882	10.380063	1.472845
-4.964883	10.380063	1.563701
-4.964885	10.380062	1.654853
-4.964886	10.380062	1.746402
-4.964888	10.380062	1.838452
-4.964889	10.380061	1.931106
-4.964891	10.380061	2.024471
-3.044396	10.554564	0.092657
-3.145461	10.507119	0.092654
-3.255261	10.455574	0.092650
-3.375115	10.399308	0.092647
-3.506619	10.337574	0.092642
-3.651725	10.269454	0.092638
-3.812841	10.193819	0.092632
-3.992979	10.109254	0.092627
-4.195952	10.013968	0.092620
-4.426663	9.905661	0.092613
-4.691523	9.781324	0.092604
-4.961216	9.654717	0.104589
-4.961219	9.654716	0.208173
-4.961222	9.654714	0.310503
-4.961225	9.654713	0.411709
-4.961228	9.654711	0.511919
-4.961231	9.654710	0.611255
-4.961234	9.654708	0.709833
-4.961237	9.654707	0.807769
-4.961240	9.654706	0.905173
-4.961243	9.654704	1.002155
-4.961246	9.654703	1.098822
-4.961249	9.654701	1.195280
-4.961252	9.654700	1.291634
-4.961255	9.654699	1.387988
-4.961258	9.654697	1.484446
-4.961261	9.654696	1.581115
-4.961264	9.654694	1.678099
-4.961267	9.654693	1.775506
-4.961270	9.654691	1.873445
-4.961273	9.654690	1.972027
-4.961276	9.654689	2.071366
-2.872722	10.257331	0.092629
-2.964307	10.193469	0.092624
-3.063809	10.124087	0.092619
-3.172422	10.048352	0.092613
-3.291593	9.965254	0.092607
-3.423091	9.873562	0.092600
-3.569098	9.771752	0.092592
-3.732343	9.657922	0.092584
-3.916284	9.529661	0.092574
-4.125362	9.383872	0.092563
-4.365389	9.216502	0.092550
-4.644111	9.022151	0.092536
-4.831312	8.891617	0.137439
-4.831313	8.891615	0.246451
-4.831315	8.891614	0.354266
-4.831317	8.891613	0.461019
-4.831318	8.891612	0.566840
-4.831320	8.891611	0.671855
-4.831321	8.891610	0.776185
-4.831323	8.891609	0.879949
-4.831325	8.891608	0.983263
-4.831326	8.891607	1.086241
-4.831328	8.891605	1.188997
-4.831329	8.891604	1.291641
-4.831331	8.891603	1.394286
-4.831332	8.891602	1.497042
-4.831334	8.891601	1.600022
-4.831336	8.891600	1.703337
-4.831337	8.891599	1.807103
-4.831339	8.891598	1.911436
-4.831340	8.891597	2.016454
-4.831342	8.891596	2.122279
-2.653227	9.993425	0.092603
-2.732692	9.914985	0.092597
-2.819025	9.829765	0.092590
-2.913264	9.736742	0.092582
-3.016664	9.634675	0.092574
-3.130760	9.522051	0.092565
-3.257445	9.397000	0.092555
-3.399088	9.257183	0.092544
-3.558689	9.099641	0.092532
-3.740101	8.920568	0.092517
-3.764014	8.896964	0.173355
-3.764016	8.896962	0.264213
-3.764017	8.896961	0.353867
-3.764019	8.896959	0.442434
-3.764021	8.896957	0.530030
-3.764023	8.896955	0.616764
-3.764025	8.896953	0.702740
-3.764027	8.896951	0.788061
-3.764028	8.896950	0.872826
-3.764030	8.896948	0.957130
-3.764032	8.896946	1.041070
-3.764034	8.896944	1.124737
-3.764036	8.896943	1.208222
-3.764037	8.896941	1.291618
-3.764039	8.896939	1.375013
-3.764041	8.896937	1.458500
-3.764043	8.896936	1.542168
-3.764044	8.896934	1.626109
-3.764046	8.896932	1.710416
-3.764048	8.896930	1.795183
-3.764050	8.896929	1.880507
-3.764052	8.896927	1.966487
-2.392239	9.770457	0.092580
-2.457291	9.679700	0.092573
-2.527964	9.581099	0.092565
-2.605110	9.473468	0.092556
-2.689756	9.355374	0.092546
-2.783157	9.225064	0.092535
-2.886866	9.080375	0.092523
-3.002819	8.918601	0.092510
-3.015635	8.900720	0.166122
-3.015637	8.900718	0.246945
-3.015639	8.900715	0.326506
-3.015641	8.900712	0.404919
-3.015643	8.900710	0.482293
-3.015645	8.900707	0.558730
-3.015647	8.900705	0.634328
-3.015648	8.900702	0.709182
-3.015650	8.900700	0.783382
-3.015652	8.900697	0.857017
-3.015654	8.900695	0.930172
-3.015655	8.900692	1.002929
-3.015657	8.900690	1.075372
-3.015659	8.900688	1.147579
-3.015661	8.900685	1.219630
-3.015662	8.900683	1.291604
-3.015664	8.900680	1.363577
-3.015666	8.900678	1.435629
-3.015668	8.900676	1.507838
-3.015669	8.900673	1.580282
-3.015671	8.900671	1.653042
-3.015673	8.900668	1.726199
-3.015675	8.900666	1.799837
-3.015676	8.900663	1.874041
-2.097283	9.594860	0.092562
-2.146044	9.494402	0.092553
-2.199019	9.385262	0.092544
-2.256846	9.266127	0.092534
-2.320294	9.135410	0.092523
-2.390306	8.991171	0.092510
-2.432787	8.903652	0.126220
-2.432788	8.903649	0.201763
-2.432790	8.903645	0.275944
-2.432792	8.903642	0.348879
-2.432793	8.903638	0.420676
-2.432795	8.903635	0.491438
-2.432797	8.903632	0.561261
-2.432798	8.903628	0.630238
-2.432800	8.903625	0.698459
-2.432801	8.903622	0.766008
-2.432803	8.903619	0.832967
-2.432804	8.903616	0.899417
-2.432806	8.903612	0.965433
-2.432807	8.903609	1.031090
-2.432809	8.903606	1.096464
-2.432810	8.903603	1.161625
