0.900131	1.986552	0.207910
0.900133	1.990416	0.227748
0.900136	1.994902	0.247738
0.139827	1.057333	0.047748
0.143837	1.063781	0.047748
0.148193	1.070878	0.047748
0.152948	1.078721	0.047748
0.158165	1.087428	0.047748
0.163921	1.097142	0.047748
0.170313	1.108040	0.047748
0.177459	1.120344	0.047748
0.185511	1.134334	0.047748
0.194663	1.150371	0.047748
0.205170	1.168926	0.047748
0.217370	1.190629	0.047748
0.231727	1.216339	0.047748
0.248886	1.247256	0.047748
0.269782	1.285116	0.047748
0.295819	1.332522	0.047748
0.329200	1.393566	0.047748
0.373597	1.475067	0.047748
0.435622	1.589302	0.047748
0.528500	1.760829	0.047748
0.683099	2.046959	0.047747
0.722115	2.117931	0.060314
0.722115	2.116941	0.075576
0.722114	2.116611	0.090821
0.722113	2.116940	0.106066
0.722113	2.117929	0.121328
0.722112	2.119580	0.136623
0.722112	2.121898	0.151968
0.722111	2.124890	0.167379
0.722110	2.128563	0.182875
0.722110	2.132927	0.198472
0.722109	2.137996	0.214189
0.115251	1.069646	0.062329
0.117903	1.076601	0.062329
0.120785	1.084255	0.062329
0.123930	1.092715	0.062329
0.127381	1.102106	0.062329
0.131189	1.112584	0.062329
0.135417	1.124338	0.062329
0.140144	1.137608	0.062329
0.145470	1.152697	0.062329
0.151525	1.169994	0.062329
0.158475	1.190007	0.062329
0.166545	1.213416	0.062329
0.176041	1.241146	0.062329
0.187392	1.274492	0.062329
0.201215	1.315327	0.062329
0.218438	1.366458	0.062329
0.240519	1.432298	0.062329
0.269887	1.520204	0.062329
0.310916	1.643416	0.062329
0.372355	1.828422	0.062329
0.468870	2.119581	0.062731
0.468870	2.117929	0.072112
0.468870	2.116940	0.081472
0.468869	2.116611	0.090821
0.468869	2.116941	0.100171
0.468869	2.117930	0.109531
0.468869	2.119582	0.118912
0.468869	2.121901	0.128323
0.468868	2.124893	0.137774
0.468868	2.128567	0.147278
0.468868	2.132932	0.156844
0.468868	2.138001	0.166483
0.089960	1.076656	0.077328
0.091216	1.083898	0.077328
0.092580	1.091871	0.077328
0.094069	1.100681	0.077328
0.095702	1.110462	0.077328
0.097505	1.121373	0.077328
0.099506	1.133615	0.077328
0.101744	1.147436	0.077328
0.104265	1.163150	0.077328
0.107131	1.181164	0.077328
0.110421	1.202007	0.077328
0.114241	1.226387	0.077328
0.118736	1.255266	0.077328
0.124110	1.289995	0.077328
0.130653	1.332523	0.077328
0.138806	1.385774	0.077328
0.149258	1.454345	0.077328
0.163160	1.545895	0.077328
0.182582	1.674216	0.077328
0.211666	1.866894	0.077328
0.249783	2.119579	0.078048
0.249783	2.117928	0.082311
0.249783	2.116940	0.086565
0.249783	2.116611	0.090815
0.249783	2.116941	0.095065
0.249783	2.117931	0.099319
0.249783	2.119583	0.103583
0.249783	2.121903	0.107860
0.249783	2.124895	0.112157
0.249783	2.128570	0.116476
0.249783	2.132935	0.120824
0.249783	2.138005	0.125205
0.064780	1.078601	0.092259
0.064645	1.085923	0.092259
0.064498	1.093984	0.092259
0.064338	1.102892	0.092259
0.064162	1.112781	0.092259
0.063968	1.123813	0.092259
0.063752	1.136190	0.092259
0.063511	1.150164	0.092259
0.063240	1.166052	0.092259
0.062931	1.184265	0.092259
0.062577	1.205339	0.092260
0.062166	1.229989	0.092260
0.061682	1.259188	0.092260
0.061103	1.294301	0.092260
0.060399	1.337300	0.092260
0.059521	1.391142	0.092260
0.058396	1.460472	0.092261
0.056899	1.553039	0.092261
0.054808	1.682784	0.092261
0.051676	1.877603	0.092262
0.047788	2.119578	0.092170
0.047788	2.117927	0.091716
0.047788	2.116939	0.091263
0.047788	2.116611	0.090811
0.047788	2.116942	0.090358
0.047787	2.117932	0.089905
0.047787	2.119585	0.089451
0.047787	2.121905	0.088996
0.047787	2.124898	0.088538
0.047787	2.128573	0.088078
0.047787	2.132939	0.087615
0.047787	2.138010	0.087149
0.038162	1.075379	0.108047
0.036557	1.082569	0.108047
0.034813	1.090483	0.108047
0.032909	1.099230	0.108047
0.030821	1.108939	0.108047
0.028516	1.119772	0.108047
0.025958	1.131924	0.108047
0.023097	1.145644	0.108047
0.019873	1.161245	0.108047
0.016209	1.179128	0.108047
0.012003	1.199819	0.108047
0.007119	1.224021	0.108047
0.001372	1.252691	0.108047
-0.005497	1.287167	0.108047
-0.013863	1.329385	0.108047
-0.024286	1.382248	0.108047
-0.037649	1.450318	0.108046
-0.055422	1.541200	0.108046
-0.080252	1.668582	0.108046
-0.117432	1.859847	0.108046
-0.167653	2.118415	0.107230
-0.167653	2.116766	0.101745
-0.167653	2.115779	0.096271
-0.167654	2.115452	0.090803
-0.167654	2.115782	0.085336
-0.167654	2.116772	0.079862
-0.167654	2.118424	0.074376
-0.167654	2.120742	0.068873
-0.167654	2.123732	0.063345
-0.167654	2.127404	0.057787
-0.167655	2.131766	0.052193
-0.167655	2.136832	0.046556
0.013145	1.067151	0.122883
0.010159	1.074002	0.122883
0.006914	1.081544	0.122883
0.003372	1.089879	0.122883
-0.000515	1.099132	0.122883
-0.004803	1.109454	0.122883
-0.009564	1.121035	0.122883
-0.014887	1.134110	0.122883
-0.020886	1.148977	0.122883
-0.027703	1.166018	0.122883
-0.035530	1.185737	0.122883
-0.044619	1.208801	0.122883
-0.055313	1.236122	0.122883
-0.068096	1.268977	0.122883
-0.083663	1.309210	0.122883
-0.103059	1.359588	0.122883
-0.127926	1.424460	0.122884
-0.161000	1.511073	0.122884
-0.207207	1.632474	0.122884
-0.276401	1.814765	0.122884
-0.391580	2.118863	0.122885
-0.443011	2.253592	0.114564
-0.443011	2.252494	0.102673
-0.443012	2.252130	0.090795
-0.443012	2.252498	0.078918
-0.443013	2.253600	0.067027
-0.443013	2.255438	0.055110
-0.443013	2.258017	0.043155
-0.443014	2.261344	0.031147
-0.443014	2.265429	0.019074
-0.443015	2.270283	0.006921
-0.443015	2.275919	-0.005325
-0.010313	1.054116	0.136795
-0.014595	1.060431	0.136795
-0.019247	1.067383	0.136795
-0.024325	1.075065	0.136795
-0.029897	1.083594	0.136795
-0.036045	1.093109	0.136795
-0.042872	1.103783	0.136795
-0.050504	1.115834	0.136795
-0.059104	1.129537	0.136795
-0.068879	1.145245	0.136795
-0.080100	1.163419	0.136795
-0.093130	1.184677	0.136795
-0.108463	1.209860	0.136795
-0.126790	1.240142	0.136795
-0.149108	1.277225	0.136795
-0.176916	1.323659	0.136795
-0.212567	1.383451	0.136795
-0.259985	1.463280	0.136795
-0.326230	1.575173	0.136795
-0.425428	1.743182	0.136795
-0.590546	2.023447	0.136795
-0.724489	2.250262	0.127668
-0.724490	2.249168	0.109218
-0.724491	2.248805	0.090787
-0.724492	2.249173	0.072357
-0.724493	2.250273	0.053906
-0.724494	2.252106	0.035416
-0.724495	2.254680	0.016865
-0.724496	2.258000	-0.001767
-0.724497	2.262075	-0.020501
-0.724498	2.266917	-0.039358
-0.724500	2.272540	-0.058359
-0.031534	1.036651	0.149380
-0.036988	1.042248	0.149380
-0.042913	1.048409	0.149380
-0.049382	1.055218	0.149380
-0.056478	1.062776	0.149380
-0.064309	1.071208	0.149380
-0.073004	1.080668	0.149380
-0.082725	1.091348	0.149380
-0.093678	1.103492	0.149380
-0.106128	1.117413	0.149380
-0.120421	1.133520	0.149380
-0.137017	1.152359	0.149380
-0.156546	1.174677	0.149380
-0.179888	1.201514	0.149380
-0.208315	1.234379	0.149380
-0.243734	1.275530	0.149380
-0.289142	1.328519	0.149380
-0.349537	1.399267	0.149380
-0.433912	1.498430	0.149380
-0.560259	1.647325	0.149380
-0.770567	1.895706	0.149380
-1.064776	2.243337	0.143510
-1.064778	2.242249	0.117130
-1.064781	2.241889	0.090778
-1.064783	2.242255	0.064426
-1.064785	2.243350	0.038045
-1.064787	2.245175	0.011607
-1.064789	2.247736	-0.014918
-1.064791	2.251040	-0.041558
-1.064793	2.255095	-0.068344
-1.064795	2.259913	-0.095306
-1.064797	2.265508	-0.122475
-0.049899	1.015256	0.160271
-0.056367	1.019972	0.160271
-0.063394	1.025164	0.160271
-0.071065	1.030902	0.160271
-0.079481	1.037271	0.160271
-0.088768	1.044377	0.160271
-0.099080	1.052349	0.160271
-0.110608	1.061350	0.160271
-0.123598	1.071584	0.160271
-0.138363	1.083315	0.160270
-0.155313	1.096888	0.160270
-0.174995	1.112765	0.160270
-0.198154	1.131572	0.160270
-0.225836	1.154188	0.160270
-0.259547	1.181882	0.160270
-0.301550	1.216560	0.160269
-0.355399	1.261214	0.160269
-0.427019	1.320831	0.160269
-0.527076	1.404392	0.160268
-0.676902	1.529858	0.160267
-0.926283	1.739148	0.160266
-1.208729	1.976081	0.150212
-1.208726	1.975205	0.120476
-1.208723	1.974912	0.090774
-1.208720	1.975201	0.061071
-1.208717	1.976073	0.031336
-1.208713	1.977530	0.001537
-1.208710	1.979577	-0.028360
-1.208707	1.982218	-0.058386
-1.208704	1.985462	-0.088577
-1.208701	1.989316	-0.118965
-1.208698	1.993792	-0.149587
-0.066046	0.988255	0.169846
-0.073406	0.991861	0.169846
-0.081403	0.995830	0.169846
-0.090131	1.000217	0.169846
-0.099708	1.005087	0.169846
-0.110276	1.010519	0.169846
-0.122009	1.016614	0.169846
-0.135128	1.023496	0.169847
-0.149909	1.031320	0.169847
-0.166711	1.040289	0.169847
-0.185999	1.050666	0.169847
-0.208396	1.062805	0.169847
-0.234750	1.077184	0.169848
-0.266251	1.094475	0.169848
-0.304613	1.115650	0.169849
-0.352412	1.142164	0.169849
-0.413692	1.176306	0.169850
-0.495198	1.221890	0.169851
-0.609069	1.285784	0.169853
-0.779588	1.381724	0.169855
-1.063432	1.541772	0.169859
-1.211369	1.624681	0.150340
-1.211367	1.624092	0.120544
-1.211365	1.623896	0.090779
-1.211363	1.624091	0.061015
-1.211362	1.624679	0.031218
-1.211360	1.625660	0.001357
-1.211358	1.627039	-0.028601
-1.211356	1.628818	-0.058690
-1.211355	1.631002	-0.088944
-1.211353	1.633598	-0.119395
-1.211351	1.636612	-0.150081
-0.076081	0.963280	0.175798
-0.083995	0.965859	0.175798
-0.092593	0.968697	0.175798
-0.101979	0.971834	0.175798
-0.112277	0.975316	0.175798
-0.123639	0.979200	0.175798
-0.136256	0.983559	0.175798
-0.150361	0.988479	0.175798
-0.166255	0.994074	0.175798
-0.184320	1.000487	0.175798
-0.205059	1.007907	0.175798
-0.229141	1.016586	0.175797
-0.257478	1.026868	0.175797
-0.291347	1.039231	0.175797
-0.332594	1.054371	0.175797
-0.383987	1.073329	0.175796
-0.449873	1.097740	0.175796
-0.537504	1.130331	0.175796
-0.659927	1.176012	0.175795
-0.843246	1.244602	0.175794
-1.148375	1.359016	0.175792
-1.393157	1.450579	0.158798
-1.393165	1.450136	0.124765
-1.393173	1.449990	0.090768
-1.393181	1.450142	0.056771
-1.393188	1.450593	0.022737
-1.393196	1.451342	-0.011371
-1.393204	1.452393	-0.045591
-1.393212	1.453748	-0.079961
-1.393220	1.455411	-0.114518
-1.393228	1.457387	-0.149303
-1.393236	1.459680	-0.184356
-0.083147	0.934191	0.179989
-0.091452	0.935573	0.179989
-0.100474	0.937094	0.179989
-0.110323	0.938775	0.179989
-0.121128	0.940641	0.179989
-0.133052	0.942723	0.179989
-0.146290	0.945059	0.179989
-0.161092	0.947696	0.179989
-0.177769	0.950694	0.179989
-0.196726	0.954131	0.179989
-0.218488	0.958107	0.179989
-0.243758	0.962759	0.179989
-0.273493	0.968269	0.179989
-0.309034	0.974895	0.179989
-0.352317	0.983009	0.179989
-0.406246	0.993168	0.179989
-0.475385	1.006251	0.179989
-0.567343	1.023718	0.179989
-0.695813	1.048201	0.179989
-0.888191	1.084962	0.179989
-1.208409	1.146285	0.179989
-1.848349	1.269035	0.179989
-2.050583	1.307601	0.140050
-2.050582	1.307491	0.090750
-2.050581	1.307601	0.041449
-2.050580	1.307932	-0.007905
-2.050579	1.308485	-0.057366
-2.050578	1.309261	-0.106989
-2.050577	1.310262	-0.156827
-2.050576	1.311491	-0.206938
-2.050576	1.312952	-0.257378
-2.050575	1.314648	-0.308205
-0.085856	0.904129	0.181595
-0.094310	0.904274	0.181595
-0.103495	0.904434	0.181595
-0.113521	0.904610	0.181595
-0.124521	0.904806	0.181595
-0.136659	0.905025	0.181595
-0.150136	0.905270	0.181595
-0.165203	0.905547	0.181595
-0.182181	0.905862	0.181595
-0.201479	0.906223	0.181595
-0.223633	0.906640	0.181595
-0.249357	0.907129	0.181595
-0.279627	0.907707	0.181594
-0.315807	0.908403	0.181594
-0.359867	0.909255	0.181594
-0.414766	0.910322	0.181594
-0.485147	0.911695	0.181593
-0.578755	0.913529	0.181593
-0.709531	0.916100	0.181592
-0.905356	0.919960	0.181591
-1.231305	0.926398	0.181590
-1.882660	0.939285	0.181586
-2.053689	0.942644	0.140122
-2.053688	0.942632	0.090749
-2.053688	0.942644	0.041377
-2.053688	0.942678	-0.008050
-2.053688	0.942735	-0.057584
-2.053687	0.942815	-0.107279
-2.053687	0.942919	-0.157191
-2.053687	0.943046	-0.207375
-2.053686	0.943197	-0.257889
-2.053686	0.943372	-0.308791
-0.084170	0.873966	0.180595
-0.092531	0.872870	0.180595
-0.101615	0.871664	0.180596
-0.111530	0.870331	0.180596
-0.122410	0.868851	0.180596
-0.134414	0.867201	0.180596
-0.147743	0.865348	0.180596
-0.162645	0.863257	0.180596
-0.179437	0.860880	0.180596
-0.198522	0.858154	0.180596
-0.220433	0.855001	0.180596
-0.245875	0.851312	0.180596
-0.275814	0.846943	0.180596
-0.311597	0.841689	0.180596
-0.355175	0.835254	0.180597
-0.409473	0.827197	0.180597
-0.479086	0.816822	0.180597
-0.571673	0.802971	0.180598
-0.701026	0.783555	0.180598
-0.894727	0.754402	0.180599
-1.217157	0.705769	0.180601
-1.861547	0.608415	0.180603
-2.054815	0.579398	0.140148
-2.054816	0.579485	0.090749
-2.054817	0.579397	0.041350
-2.054818	0.579136	-0.008102
-2.054819	0.578699	-0.057663
-2.054820	0.578087	-0.107385
-2.054821	0.577296	-0.157324
-2.054822	0.576326	-0.207535
-2.054823	0.575173	-0.258076
-2.054824	0.573834	-0.309006
-0.078115	0.844570	0.177005
-0.086142	0.842264	0.177005
-0.094862	0.839727	0.177005
-0.104381	0.836923	0.177005
-0.114825	0.833810	0.177005
-0.126350	0.830337	0.177005
-0.139145	0.826441	0.177005
-0.153451	0.822043	0.177005
-0.169571	0.817041	0.177005
-0.187893	0.811308	0.177005
-0.208927	0.804674	0.177005
-0.233352	0.796915	0.177005
-0.262092	0.787723	0.177005
-0.296443	0.776670	0.177005
-0.338277	0.763135	0.177005
-0.390402	0.746187	0.177005
-0.457228	0.724363	0.177005
-0.546108	0.695225	0.177005
-0.670279	0.654384	0.177005
-0.856220	0.593061	0.177005
-1.165723	0.490765	0.177005
-1.784249	0.285998	0.177005
-3.640005	-0.329028	0.177005
-nan	-inf	-nan
-nan	-inf	-nan
-nan	-inf	-nan
-nan	-inf	-nan
-nan	-inf	-nan
-nan	-inf	-nan
-nan	-inf	-nan
-nan	-inf	-nan
-nan	-inf	-nan
-0.067863	0.816792	0.170924
-0.075323	0.813344	0.170924
-0.083428	0.809548	0.170925
-0.092276	0.805354	0.170925
-0.101983	0.800698	0.170925
-0.112695	0.795503	0.170925
-0.124588	0.789676	0.170925
-0.137885	0.783096	0.170925
-0.152868	0.775615	0.170925
-0.169898	0.767040	0.170925
-0.189448	0.757117	0.170925
-0.212150	0.745511	0.170925
-0.238863	0.731763	0.170925
-0.270792	0.715230	0.170925
-0.309676	0.694984	0.170925
-0.358124	0.669633	0.170925
-0.420238	0.636989	0.170926
-0.502851	0.593405	0.170926
-0.618268	0.532315	0.170926
-0.791101	0.440586	0.170927
-1.078791	0.287566	0.170927
-1.653742	-0.018745	0.170929
-3.378907	-0.938838	0.170934
-nan	-inf	-nan
-nan	-inf	-nan
-nan	-inf	-nan
-nan	-inf	-nan
-nan	-inf	-nan
-nan	-inf	-nan
-nan	-inf	-nan
-nan	-inf	-nan
-nan	-inf	-nan
-0.053714	0.791433	0.162534
-0.060394	0.786941	0.162534
-0.067650	0.781998	0.162534
-0.075571	0.776535	0.162534
-0.084261	0.770470	0.162534
-0.093851	0.763704	0.162534
-0.104498	0.756113	0.162534
-0.116403	0.747543	0.162534
-0.129816	0.737798	0.162534
-0.145062	0.726628	0.162534
-0.162564	0.713704	0.162534
-0.182888	0.698586	0.162534
-0.206803	0.680679	0.162534
-0.235387	0.659144	0.162534
-0.270197	0.632773	0.162534
-0.313570	0.599753	0.162533
-0.369176	0.557234	0.162533
-0.443133	0.500465	0.162533
-0.546455	0.420897	0.162533
-0.701173	0.301424	0.162533
-0.958703	0.102127	0.162532
-1.473352	-0.296798	0.162531
-3.017358	-1.494917	0.162528
-nan	-inf	-nan
-nan	-inf	-nan
-nan	-inf	-nan
-nan	-inf	-nan
-nan	-inf	-nan
-nan	-inf	-nan
-nan	-inf	-nan
-nan	-inf	-nan
-nan	-inf	-nan
-0.036092	0.769209	0.152083
-0.041798	0.763803	0.152083
-0.047997	0.757853	0.152083
-0.054764	0.751278	0.152083
-0.062188	0.743978	0.152083
-0.070381	0.735835	0.152083
-0.079477	0.726698	0.152083
-0.089646	0.716384	0.152083
-0.101105	0.704655	0.152083
-0.114130	0.691211	0.152083
-0.129082	0.675655	0.152083
-0.146445	0.657460	0.152083
-0.166875	0.635907	0.152083
-0.191295	0.609988	0.152083
-0.221033	0.578248	0.152083
-0.258087	0.538505	0.152083
-0.305591	0.487329	0.152083
-0.368774	0.419003	0.152083
-0.457043	0.323233	0.152083
-0.589222	0.179433	0.152083
-0.809238	-0.060447	0.152083
-1.248929	-0.540616	0.152083
-2.568127	-1.982823	0.152083
-nan	-inf	-nan
-nan	-inf	-nan
-nan	-inf	-nan
-nan	-inf	-nan
-nan	-inf	-nan
-nan	-inf	-nan
-nan	-inf	-nan
-nan	-inf	-nan
-nan	-inf	-nan
-0.015477	0.750790	0.139858
-0.020045	0.744627	0.139858
-0.025007	0.737843	0.139858
-0.030424	0.730346	0.139858
-0.036367	0.722023	0.139858
-0.042924	0.712738	0.139858
-0.050206	0.702321	0.139858
-0.058346	0.690560	0.139858
-0.067519	0.677188	0.139858
-0.077945	0.661859	0.139858
-0.089914	0.644123	0.139858
-0.103812	0.623377	0.139858
-0.120166	0.598802	0.139858
-0.139713	0.569250	0.139858
-0.163518	0.533061	0.139858
-0.193178	0.487747	0.139858
-0.231204	0.429398	0.139858
-0.281780	0.351493	0.139858
-0.352438	0.242299	0.139858
-0.458243	0.078342	0.139858
-0.634360	-0.195164	0.139858
-0.986320	-0.742640	0.139858
-2.042300	-2.387005	0.139857
-nan	-inf	-nan
-nan	-inf	-nan
-nan	-inf	-nan
-nan	-inf	-nan
-nan	-inf	-nan
-nan	-inf	-nan
-nan	-inf	-nan
-nan	-inf	-nan
-nan	-inf	-nan
0.007513	0.736677	0.126223
0.004215	0.729933	0.126223
0.000632	0.722510	0.126223
-0.003278	0.714307	0.126223
-0.007569	0.705200	0.126223
-0.012304	0.695040	0.126223
-0.017561	0.683642	0.126223
-0.023439	0.670773	0.126223
-0.030062	0.656141	0.126223
-0.037589	0.639368	0.126223
-0.046231	0.619961	0.126223
-0.056266	0.597261	0.126223
-0.068073	0.570372	0.126223
-0.082187	0.538036	0.126223
-0.099374	0.498438	0.126223
-0.120789	0.448855	0.126223
-0.148244	0.385009	0.126223
-0.184761	0.299767	0.126223
-0.235776	0.180288	0.126223
-0.312168	0.000887	0.126223
-0.439325	-0.298378	0.126223
-0.693438	-0.897413	0.126222
-1.455832	-2.696592	0.126222
-nan	-inf	-nan
-nan	-inf	-nan
-nan	-inf	-nan
-nan	-inf	-nan
-nan	-inf	-nan
-nan	-inf	-nan
-nan	-inf	-nan
-nan	-inf	-nan
-nan	-inf	-nan
0.031483	0.727505	0.112002
0.029509	0.720384	0.112002
0.027365	0.712546	0.112002
0.025024	0.703883	0.112002
0.022456	0.694267	0.112002
0.019621	0.683538	0.112002
0.016475	0.671502	0.112002
0.012956	0.657914	0.112002
0.008992	0.642463	0.112002
0.004486	0.624751	0.112002
-0.000686	0.604258	0.112002
-0.006693	0.580288	0.112002
-0.013761	0.551893	0.112002
-0.022209	0.517747	0.112002
-0.032497	0.475932	0.112002
-0.045316	0.423575	0.112002
-0.061750	0.356154	0.112003
-0.083609	0.266139	0.112003
-0.114146	0.139970	0.112003
-0.159875	-0.049478	0.112004
-0.235992	-0.365508	0.112004
-0.388112	-0.998121	0.112006
-0.844540	-2.898300	0.112010
-nan	-inf	-nan
-nan	-inf	-nan
-nan	-inf	-nan
-nan	-inf	-nan
-nan	-inf	-nan
-nan	-inf	-nan
-nan	-inf	-nan
-nan	-inf	-nan
-nan	-inf	-nan
0.057187	0.722965	0.096760
0.056633	0.715657	0.096760
0.056031	0.707613	0.096760
0.055373	0.698724	0.096760
0.054652	0.688855	0.096760
0.053856	0.677846	0.096760
0.052972	0.665494	0.096760
0.051984	0.651549	0.096760
0.050870	0.635693	0.096760
0.049605	0.617518	0.096760
0.048152	0.596487	0.096760
0.046465	0.571889	0.096760
0.044479	0.542751	0.096760
0.042107	0.507710	0.096760
0.039217	0.464801	0.096760
0.035617	0.411072	0.096759
0.031001	0.341886	0.096759
0.024861	0.249516	0.096759
0.016285	0.120046	0.096759
0.003441	-0.074354	0.096758
-0.017936	-0.398638	0.096757
-0.060657	-1.047738	0.096755
-0.188821	-2.997181	0.096749
-nan	-inf	-nan
-nan	-inf	-nan
-nan	-inf	-nan
-nan	-inf	-nan
-nan	-inf	-nan
-nan	-inf	-nan
-nan	-inf	-nan
-nan	-inf	-nan
-nan	-inf	-nan
0.083942	0.723650	0.080897
0.084865	0.716370	0.080897
0.085868	0.708357	0.080897
0.086963	0.699502	0.080897
0.088164	0.689671	0.080897
0.089489	0.678704	0.080897
0.090961	0.666399	0.080897
0.092606	0.652508	0.080897
0.094460	0.636713	0.080897
0.096567	0.618607	0.080897
0.098986	0.597657	0.080897
0.101795	0.573153	0.080897
0.105101	0.544125	0.080897
0.109051	0.509218	0.080897
0.113863	0.466472	0.080897
0.119857	0.412948	0.080897
0.127543	0.344025	0.080897
0.137765	0.252003	0.080897
0.152046	0.123021	0.080897
0.173432	-0.070652	0.080897
0.209030	-0.393734	0.080897
0.280173	-1.040473	0.080896
0.493644	-2.983184	0.080896
-nan	-inf	-nan
-nan	-inf	-nan
-nan	-inf	-nan
-nan	-inf	-nan
-nan	-inf	-nan
-nan	-inf	-nan
-nan	-inf	-nan
-nan	-inf	-nan
-nan	-inf	-nan
0.109451	0.729485	0.065769
0.111783	0.722446	0.065769
0.114317	0.714697	0.065769
0.117082	0.706134	0.065769
0.120116	0.696628	0.065769
0.123464	0.686022	0.065769
0.127181	0.674124	0.065769
0.131338	0.660691	0.065769
0.136021	0.645418	0.065769
0.141343	0.627909	0.065769
0.147454	0.607651	0.065769
0.154550	0.583956	0.065769
0.162899	0.555887	0.065769
0.172878	0.522133	0.065769
0.185032	0.480799	0.065769
0.200174	0.429043	0.065769
0.219588	0.362398	0.065769
0.245408	0.273419	0.065769
0.281480	0.148704	0.065770
0.335494	-0.038555	0.065770
0.425402	-0.350925	0.065770
0.605068	-0.976166	0.065771
1.144052	-2.853870	0.065773
-nan	-inf	-nan
-nan	-inf	-nan
-nan	-inf	-nan
-nan	-inf	-nan
-nan	-inf	-nan
-nan	-inf	-nan
-nan	-inf	-nan
-nan	-inf	-nan
-nan	-inf	-nan
0.133742	0.740260	0.051363
0.137415	0.733664	0.051363
0.141406	0.726403	0.051363
0.145763	0.718379	0.051363
0.150542	0.709471	0.051363
0.155816	0.699533	0.051363
0.161672	0.688383	0.051363
0.168220	0.675796	0.051363
0.175597	0.661483	0.051363
0.183982	0.645077	0.051363
0.193608	0.626093	0.051363
0.204786	0.603889	0.051363
0.217939	0.577586	0.051363
0.233661	0.545956	0.051363
0.252807	0.507222	0.051363
0.276662	0.458721	0.051363
0.307246	0.396266	0.051362
0.347924	0.312881	0.051362
0.404755	0.196004	0.051362
0.489857	0.020507	0.051362
0.631516	-0.272258	0.051361
0.914629	-0.858316	0.051359
1.764173	-2.618819	0.051355
-nan	-inf	-nan
-nan	-inf	-nan
-nan	-inf	-nan
-nan	-inf	-nan
-nan	-inf	-nan
-nan	-inf	-nan
-nan	-inf	-nan
-nan	-inf	-nan
-nan	-inf	-nan
0.156117	0.755653	0.038094
0.161026	0.749690	0.038094
0.166359	0.743126	0.038094
0.172181	0.735872	0.038094
0.178568	0.727820	0.038094
0.185616	0.718836	0.038094
0.193442	0.708757	0.038094
0.202191	0.697379	0.038094
0.212050	0.684441	0.038094
0.223255	0.669610	0.038094
0.236119	0.652449	0.038094
0.251056	0.632378	0.038094
0.268633	0.608601	0.038095
0.289641	0.580009	0.038095
0.315226	0.544996	0.038095
0.347103	0.501155	0.038095
0.387971	0.444702	0.038095
0.442326	0.369331	0.038096
0.518263	0.263690	0.038096
0.631971	0.105069	0.038097
0.821237	-0.159526	0.038098
1.199452	-0.689135	0.038100
2.334028	-2.279590	0.038106
-nan	-inf	-nan
-nan	-inf	-nan
-nan	-inf	-nan
-nan	-inf	-nan
-nan	-inf	-nan
-nan	-inf	-nan
-nan	-inf	-nan
-nan	-inf	-nan
-nan	-inf	-nan
0.175933	0.775221	0.026342
0.181936	0.770063	0.026342
0.188458	0.764385	0.026342
0.195578	0.758111	0.026342
0.203389	0.751145	0.026342
0.212009	0.743374	0.026342
0.221579	0.734656	0.026342
0.232279	0.724813	0.026342
0.244335	0.713622	0.026342
0.258039	0.700793	0.026342
0.273771	0.685949	0.026342
0.292039	0.668586	0.026342
0.313534	0.648019	0.026342
0.339227	0.623286	0.026342
0.370516	0.592999	0.026342
0.409502	0.555074	0.026342
0.459483	0.506240	0.026342
0.525959	0.441040	0.026342
0.618831	0.349653	0.026342
0.757901	0.212433	0.026342
0.989389	-0.016470	0.026342
1.452004	-0.474667	0.026342
2.839983	-1.850880	0.026342
-nan	-inf	-nan
-nan	-inf	-nan
-nan	-inf	-nan
-nan	-inf	-nan
-nan	-inf	-nan
-nan	-inf	-nan
-nan	-inf	-nan
-nan	-inf	-nan
-nan	-inf	-nan
0.192605	0.798415	0.016455
0.199529	0.794211	0.016455
0.207052	0.789584	0.016455
0.215263	0.784470	0.016455
0.224273	0.778793	0.016455
0.234214	0.772460	0.016455
0.245252	0.765354	0.016455
0.257593	0.757333	0.016455
0.271498	0.748212	0.016455
0.287303	0.737756	0.016455
0.305447	0.725658	0.016455
0.326516	0.711508	0.016455
0.351308	0.694746	0.016456
0.380940	0.674589	0.016456
0.417026	0.649906	0.016456
0.461989	0.618999	0.016456
0.519632	0.579200	0.016457
0.596299	0.526065	0.016457
0.703406	0.451590	0.016458
0.822147	0.369085	0.020345
0.822146	0.370094	0.038034
0.822145	0.370814	0.055665
0.822143	0.371245	0.073258
0.822142	0.371389	0.090832
0.822141	0.371246	0.108405
0.822139	0.370816	0.125998
0.822138	0.370098	0.143629
0.822137	0.369089	0.161317
0.822136	0.367788	0.179082
0.822134	0.366190	0.196945
0.822133	0.364290	0.214924
0.822131	0.362085	0.233042
0.205666	0.824550	0.008709
0.213312	0.821421	0.008709
0.221618	0.817978	0.008709
0.230685	0.814172	0.008709
0.240633	0.809946	0.008709
0.251610	0.805233	0.008709
0.263798	0.799944	0.008708
0.277426	0.793974	0.008708
0.292780	0.787186	0.008708
0.310232	0.779404	0.008708
0.330268	0.770399	0.008708
0.353533	0.759868	0.008708
0.380909	0.747392	0.008708
0.413630	0.732389	0.008708
0.453480	0.714017	0.008707
0.503131	0.691012	0.008707
0.566787	0.661389	0.008707
0.651452	0.621839	0.008706
0.769736	0.566402	0.008705
0.821330	0.542734	0.020422
0.821329	0.543413	0.038091
0.821329	0.543897	0.055703
0.821328	0.544187	0.073277
0.821327	0.544284	0.090832
0.821327	0.544187	0.108386
0.821326	0.543898	0.125960
0.821325	0.543414	0.143572
0.821324	0.542734	0.161241
0.821324	0.541858	0.178987
0.821323	0.540781	0.196831
0.821322	0.539502	0.214791
0.821322	0.538017	0.232889
0.214739	0.852876	0.003328
0.222886	0.850913	0.003328
0.231736	0.848752	0.003328
0.241397	0.846364	0.003328
0.251997	0.843712	0.003328
0.263693	0.840754	0.003328
0.276680	0.837436	0.003328
0.291199	0.833689	0.003329
0.307559	0.829429	0.003329
0.326155	0.824546	0.003329
0.347502	0.818896	0.003329
0.372290	0.812287	0.003329
0.401459	0.804459	0.003329
0.436322	0.795045	0.003329
0.478779	0.783516	0.003330
0.531679	0.769081	0.003330
0.599499	0.750494	0.003330
0.689700	0.725678	0.003331
0.815716	0.690895	0.003332
0.820637	0.690032	0.020486
0.820636	0.690431	0.038140
0.820636	0.690716	0.055735
0.820635	0.690887	0.073293
0.820634	0.690944	0.090832
0.820634	0.690887	0.108370
0.820633	0.690716	0.125928
0.820633	0.690432	0.143523
0.820632	0.690032	0.161177
0.820632	0.689516	0.178907
0.820631	0.688883	0.196733
0.820630	0.688130	0.214677
0.820630	0.687256	0.232759
0.219633	0.883465	0.000422
0.228050	0.882760	0.000422
0.237194	0.881984	0.000422
0.247176	0.881126	0.000422
0.258127	0.880174	0.000422
0.270211	0.879112	0.000422
0.283629	0.877921	0.000422
0.298630	0.876575	0.000422
0.315533	0.875046	0.000422
0.334745	0.873292	0.000422
0.356801	0.871264	0.000422
0.382412	0.868891	0.000422
0.412548	0.866080	0.000422
0.448568	0.862699	0.000422
0.492434	0.858560	0.000422
0.547089	0.853377	0.000422
0.617159	0.846702	0.000422
0.710354	0.837792	0.000422
0.819618	0.827340	0.002868
0.819617	0.827519	0.020574
0.819617	0.827658	0.038204
0.819617	0.827757	0.055776
0.819617	0.827816	0.073309
0.819617	0.827836	0.090824
0.819617	0.827816	0.108339
0.819617	0.827757	0.125873
0.819616	0.827658	0.143445
0.819616	0.827519	0.161074
0.819616	0.827340	0.178780
0.819616	0.827120	0.196583
0.819616	0.826859	0.214503
0.819616	0.826555	0.232560
0.219672	0.917238	0.000397
0.228091	0.917922	0.000397
0.237238	0.918675	0.000397
0.247222	0.919508	0.000397
0.258177	0.920432	0.000397
0.270264	0.921463	0.000397
0.283686	0.922620	0.000397
0.298691	0.923926	0.000397
0.315599	0.925411	0.000397
0.334817	0.927113	0.000397
0.356879	0.929083	0.000397
0.382498	0.931386	0.000397
0.412644	0.934115	0.000397
0.448675	0.937397	0.000397
0.492556	0.941416	0.000397
0.547230	0.946448	0.000397
0.617325	0.952927	0.000397
0.710555	0.961579	0.000397
0.819656	0.971706	0.002869
0.819657	0.971532	0.020576
0.819657	0.971398	0.038206
0.819657	0.971302	0.055779
0.819657	0.971245	0.073313
0.819657	0.971226	0.090829
0.819657	0.971245	0.108345
0.819658	0.971302	0.125880
0.819658	0.971398	0.143453
0.819658	0.971533	0.161083
0.819658	0.971707	0.178791
0.819658	0.971920	0.196594
0.819658	0.972174	0.214515
0.819659	0.972468	0.232574
0.215062	0.946986	0.003133
0.223227	0.948894	0.003133
0.232097	0.950994	0.003133
0.241779	0.953315	0.003133
0.252402	0.955892	0.003133
0.264124	0.958767	0.003132
0.277140	0.961992	0.003132
0.291691	0.965633	0.003132
0.308087	0.969774	0.003132
0.326724	0.974520	0.003132
0.348119	0.980011	0.003132
0.372962	0.986434	0.003132
0.402195	0.994043	0.003132
0.437136	1.003193	0.003132
0.479688	1.014397	0.003131
0.532707	1.028427	0.003131
0.600679	1.046493	0.003131
0.691084	1.070613	0.003131
0.817386	1.104421	0.003130
0.818687	1.104276	0.020662
0.818688	1.103889	0.038269
0.818688	1.103614	0.055819
0.818689	1.103450	0.073332
0.818689	1.103395	0.090825
0.818690	1.103450	0.108318
0.818690	1.103615	0.125831
0.818691	1.103891	0.143381
0.818692	1.104278	0.160989
0.818692	1.104777	0.178673
0.818693	1.105390	0.196454
0.818693	1.106118	0.214352
0.818694	1.106964	0.232387
0.206182	0.975396	0.008398
0.213856	0.978473	0.008398
0.222193	0.981860	0.008398
0.231293	0.985603	0.008398
0.241278	0.989758	0.008398
0.252296	0.994394	0.008398
0.264530	0.999594	0.008398
0.278207	1.005466	0.008398
0.293618	1.012142	0.008398
0.311135	1.019795	0.008398
0.331245	1.028650	0.008398
0.354596	1.039007	0.008398
0.382073	1.051276	0.008398
0.414915	1.066030	0.008398
0.454911	1.084098	0.008399
0.504745	1.106721	0.008399
0.568634	1.135852	0.008399
0.653608	1.174746	0.008399
0.772323	1.229261	0.008400
0.903368	1.289392	0.012762
0.903369	1.288654	0.032353
0.903370	1.288129	0.051881
0.903371	1.287815	0.071367
0.903372	1.287710	0.090831
0.903372	1.287816	0.110296
0.903373	1.288132	0.129782
0.903374	1.288658	0.149310
0.903375	1.289397	0.168902
0.903375	1.290350	0.188579
0.903376	1.291520	0.208364
0.903377	1.292910	0.228279
0.903378	1.294525	0.248347
0.193290	1.001645	0.016045
0.200252	1.005802	0.016045
0.207816	1.010378	0.016045
0.216072	1.015434	0.016045
0.225131	1.021048	0.016045
0.235126	1.027310	0.016045
0.246225	1.034336	0.016045
0.258633	1.042268	0.016045
0.272614	1.051287	0.016045
0.288506	1.061626	0.016045
0.306750	1.073589	0.016045
0.327934	1.087581	0.016045
0.352862	1.104155	0.016045
0.382656	1.124087	0.016045
0.418940	1.148495	0.016045
0.464150	1.179057	0.016045
0.522110	1.218411	0.016045
0.599198	1.270953	0.016045
0.706895	1.344599	0.016045
0.868163	1.455177	0.016045
0.905346	1.479822	0.032212
0.905348	1.479039	0.051786
0.905349	1.478570	0.071317
0.905350	1.478414	0.090828
0.905351	1.478572	0.110339
0.905353	1.479043	0.129871
0.905354	1.479829	0.149445
0.905355	1.480932	0.169083
0.905356	1.482355	0.188807
0.905358	1.484102	0.208639
0.905359	1.486177	0.228601
0.905360	1.488587	0.248717
-0.003641	0.742804	0.132831
-0.007555	0.736312	0.132831
-0.011807	0.729167	0.132831
-0.016448	0.721270	0.132830
-0.021540	0.712504	0.132830
-0.027159	0.702724	0.132830
-0.033398	0.691752	0.132830
-0.040374	0.679364	0.132830
-0.048233	0.665280	0.132830
-0.057167	0.649134	0.132830
-0.067422	0.630453	0.132830
-0.079331	0.608602	0.132829
-0.093344	0.582718	0.132829
-0.110093	0.551592	0.132829
-0.130490	0.513475	0.132828
-0.155904	0.465748	0.132828
-0.188485	0.404292	0.132827
-0.231820	0.322240	0.132826
-0.292359	0.207235	0.132825
-0.383012	0.034556	0.132824
-0.533901	-0.253490	0.132821
-0.835426	-0.830034	0.132815
-1.739934	-2.561414	0.132798
-nan	-inf	-nan
-nan	-inf	-nan
-nan	-inf	-nan
-nan	-inf	-nan
-nan	-inf	-nan
-nan	-inf	-nan
-nan	-inf	-nan
-nan	-inf	-nan
-nan	-inf	-nan
0.020341	0.731127	0.118614
0.017751	0.724155	0.118614
0.014938	0.716481	0.118614
0.011867	0.707999	0.118614
0.008498	0.698584	0.118614
0.004780	0.688080	0.118614
0.000653	0.676296	0.118614
-0.003963	0.662992	0.118615
-0.009163	0.647864	0.118615
-0.015073	0.630524	0.118615
-0.021859	0.610459	0.118615
-0.029738	0.586991	0.118615
-0.039010	0.559190	0.118615
-0.050091	0.525759	0.118615
-0.063587	0.484820	0.118616
-0.080402	0.433559	0.118616
-0.101960	0.367550	0.118616
-0.130632	0.279421	0.118617
-0.170690	0.155894	0.118618
-0.230674	-0.029583	0.118619
-0.330518	-0.338988	0.118621
-0.530053	-0.958325	0.118625
-1.128715	-2.818528	0.118636
-nan	-inf	-nan
-nan	-inf	-nan
-nan	-inf	-nan
-nan	-inf	-nan
-nan	-inf	-nan
-nan	-inf	-nan
-nan	-inf	-nan
-nan	-inf	-nan
-nan	-inf	-nan
0.045678	0.724360	0.103582
0.044488	0.717110	0.103582
0.043195	0.709129	0.103582
0.041784	0.700309	0.103582
0.040236	0.690519	0.103582
0.038527	0.679595	0.103582
0.036630	0.667341	0.103582
0.034509	0.653506	0.103582
0.032119	0.637775	0.103581
0.029403	0.619742	0.103581
0.026285	0.598877	0.103581
0.022664	0.574472	0.103581
0.018403	0.545563	0.103581
0.013310	0.510799	0.103581
0.007108	0.468227	0.103580
-0.000619	0.414921	0.103580
-0.010526	0.346282	0.103580
-0.023702	0.254639	0.103579
-0.042110	0.126192	0.103578
-0.069674	-0.066672	0.103577
-0.115554	-0.388387	0.103575
-0.207237	-1.032326	0.103571
-0.482267	-2.966114	0.103558
-nan	-inf	-nan
-nan	-inf	-nan
-nan	-inf	-nan
-nan	-inf	-nan
-nan	-inf	-nan
-nan	-inf	-nan
-nan	-inf	-nan
-nan	-inf	-nan
-nan	-inf	-nan
0.071637	0.722654	0.088193
0.071880	0.715333	0.088193
0.072145	0.707275	0.088193
0.072433	0.698370	0.088193
0.072750	0.688484	0.088193
0.073100	0.677455	0.088193
0.073488	0.665081	0.088193
0.073922	0.651111	0.088193
0.074411	0.635227	0.088193
0.074967	0.617019	0.088194
0.075605	0.595951	0.088194
0.076346	0.571308	0.088194
0.077218	0.542117	0.088194
0.078260	0.507013	0.088194
0.079529	0.464026	0.088194
0.081110	0.410199	0.088195
0.083138	0.340887	0.088195
0.085834	0.248346	0.088195
0.089601	0.118634	0.088196
0.095242	-0.076134	0.088197
0.104632	-0.401048	0.088199
0.123399	-1.051464	0.088202
0.179713	-3.005310	0.088212
-nan	-inf	-nan
-nan	-inf	-nan
-nan	-inf	-nan
-nan	-inf	-nan
-nan	-inf	-nan
-nan	-inf	-nan
-nan	-inf	-nan
-nan	-inf	-nan
-nan	-inf	-nan
0.097465	0.726094	0.072870
0.099135	0.718915	0.072870
0.100949	0.711013	0.072870
0.102929	0.702280	0.072870
0.105102	0.692586	0.072870
0.107500	0.681770	0.072870
0.110162	0.669636	0.072870
0.113138	0.655937	0.072870
0.116492	0.640361	0.072870
0.120304	0.622505	0.072870
0.124680	0.601845	0.072870
0.129761	0.577681	0.072870
0.135740	0.549056	0.072870
0.142887	0.514633	0.072870
0.151590	0.472480	0.072869
0.162434	0.419699	0.072869
0.176337	0.351733	0.072869
0.194827	0.260992	0.072869
0.220660	0.133806	0.072868
0.259341	-0.057163	0.072867
0.323727	-0.375719	0.072866
0.452391	-1.013343	0.072864
0.838368	-2.928217	0.072856
-nan	-inf	-nan
-nan	-inf	-nan
-nan	-inf	-nan
-nan	-inf	-nan
-nan	-inf	-nan
-nan	-inf	-nan
-nan	-inf	-nan
-nan	-inf	-nan
-nan	-inf	-nan
0.122428	0.734546	0.058071
0.125476	0.727715	0.058071
0.128788	0.720195	0.058071
0.132404	0.711885	0.058071
0.136370	0.702660	0.058071
0.140747	0.692368	0.058071
0.145607	0.680821	0.058071
0.151040	0.667786	0.058071
0.157162	0.652963	0.058071
0.164121	0.635972	0.058072
0.172110	0.616313	0.058072
0.181386	0.593318	0.058072
0.192301	0.566078	0.058072
0.205348	0.533321	0.058072
0.221237	0.493208	0.058072
0.241033	0.442981	0.058072
0.266413	0.378304	0.058073
0.300170	0.291952	0.058073
0.347330	0.170918	0.058074
0.417949	-0.010817	0.058074
0.535498	-0.313980	0.058076
0.770412	-0.920822	0.058078
1.475222	-2.743498	0.058086
-nan	-inf	-nan
-nan	-inf	-nan
-nan	-inf	-nan
-nan	-inf	-nan
-nan	-inf	-nan
-nan	-inf	-nan
-nan	-inf	-nan
-nan	-inf	-nan
-nan	-inf	-nan
0.145789	0.747808	0.044212
0.150128	0.741522	0.044212
0.154842	0.734603	0.044212
0.159987	0.726956	0.044212
0.165632	0.718468	0.044212
0.171862	0.708998	0.044212
0.178778	0.698374	0.044212
0.186511	0.686379	0.044212
0.195224	0.672741	0.044212
0.205128	0.657107	0.044212
0.216498	0.639018	0.044212
0.229700	0.617860	0.044212
0.245235	0.592797	0.044212
0.263802	0.562657	0.044211
0.286415	0.525748	0.044211
0.314590	0.479534	0.044211
0.350710	0.420024	0.044211
0.398752	0.340572	0.044211
0.465868	0.229210	0.044211
0.566371	0.061998	0.044211
0.733657	-0.216931	0.044210
1.067957	-0.775245	0.044209
2.070863	-2.452009	0.044206
-nan	-inf	-nan
-nan	-inf	-nan
-nan	-inf	-nan
-nan	-inf	-nan
-nan	-inf	-nan
-nan	-inf	-nan
-nan	-inf	-nan
-nan	-inf	-nan
-nan	-inf	-nan
0.166896	0.765458	0.031699
0.172400	0.759899	0.031699
0.178381	0.753779	0.031699
0.184908	0.747016	0.031699
0.192070	0.739508	0.031699
0.199973	0.731132	0.031699
0.208748	0.721734	0.031699
0.218558	0.711125	0.031699
0.229613	0.699062	0.031699
0.242177	0.685234	0.031699
0.256602	0.669234	0.031699
0.273351	0.650519	0.031699
0.293060	0.628350	0.031699
0.316617	0.601691	0.031699
0.345305	0.569045	0.031699
0.381050	0.528166	0.031699
0.426878	0.475528	0.031699
0.487829	0.405250	0.031699
0.572983	0.306743	0.031699
0.700497	0.158832	0.031700
0.912752	-0.087909	0.031700
1.336943	-0.581824	0.031700
2.609724	-2.065419	0.031702
-nan	-inf	-nan
-nan	-inf	-nan
-nan	-inf	-nan
-nan	-inf	-nan
-nan	-inf	-nan
-nan	-inf	-nan
-nan	-inf	-nan
-nan	-inf	-nan
-nan	-inf	-nan
0.185128	0.787007	0.020883
0.191639	0.782333	0.020883
0.198713	0.777190	0.020883
0.206435	0.771505	0.020883
0.214907	0.765194	0.020883
0.224255	0.758154	0.020883
0.234635	0.750255	0.020883
0.246240	0.741337	0.020883
0.259317	0.731198	0.020883
0.274180	0.719575	0.020882
0.291242	0.706126	0.020882
0.311055	0.690396	0.020882
0.334369	0.671762	0.020882
0.362235	0.649354	0.020882
0.396171	0.621914	0.020882
0.438454	0.587554	0.020882
0.492663	0.543311	0.020882
0.564763	0.484240	0.020882
0.665491	0.401443	0.020882
0.816325	0.277123	0.020881
0.822603	0.273091	0.037995
0.822602	0.273942	0.055636
0.822600	0.274452	0.073240
0.822599	0.274622	0.090824
0.822597	0.274453	0.108408
0.822596	0.273945	0.126012
0.822595	0.273095	0.143653
0.822593	0.271902	0.161352
0.822592	0.270363	0.179128
0.822591	0.268473	0.197001
0.822589	0.266227	0.214992
0.822588	0.263618	0.233120
0.199959	0.811836	0.012091
0.207289	0.808184	0.012091
0.215253	0.804164	0.012091
0.223946	0.799722	0.012091
0.233484	0.794791	0.012091
0.244008	0.789289	0.012091
0.255694	0.783117	0.012091
0.268759	0.776148	0.012091
0.283480	0.768225	0.012091
0.300212	0.759142	0.012091
0.319421	0.748633	0.012091
0.341726	0.736341	0.012091
0.367973	0.721780	0.012091
0.399344	0.704270	0.012091
0.437548	0.682827	0.012091
0.485150	0.655977	0.012091
0.546178	0.621404	0.012091
0.627347	0.575244	0.012091
0.740745	0.510544	0.012091
0.821697	0.464729	0.020385
0.821696	0.465557	0.038063
0.821695	0.466147	0.055683
0.821695	0.466500	0.073266
0.821694	0.466618	0.090829
0.821693	0.466501	0.108392
0.821692	0.466148	0.125974
0.821691	0.465559	0.143595
0.821690	0.464732	0.161273
0.821689	0.463664	0.179027
0.821688	0.462353	0.196879
0.821686	0.460796	0.214848
0.821685	0.458987	0.232955
0.210962	0.839222	0.005562
0.218900	0.836697	0.005562
0.227524	0.833918	0.005562
0.236938	0.830846	0.005562
0.247266	0.827436	0.005562
0.258663	0.823632	0.005562
0.271317	0.819364	0.005562
0.285465	0.814546	0.005562
0.301407	0.809067	0.005562
0.319527	0.802786	0.005562
0.340328	0.795520	0.005562
0.364482	0.787020	0.005562
0.392905	0.776951	0.005562
0.426876	0.764844	0.005562
0.468248	0.750017	0.005562
0.519796	0.731451	0.005562
0.585884	0.707545	0.005562
0.673781	0.675627	0.005562
0.796580	0.630889	0.005562
0.820954	0.622556	0.020451
0.820954	0.623084	0.038112
0.820953	0.623460	0.055715
0.820952	0.623686	0.073280
0.820952	0.623761	0.090826
0.820951	0.623686	0.108372
0.819558	0.623972	0.125872
0.819558	0.623597	0.143443
0.819557	0.623070	0.161071
0.819557	0.622390	0.178775
0.819556	0.621556	0.196577
0.819555	0.620564	0.214495
0.819555	0.619412	0.232551
0.217822	0.868380	0.001497
0.226139	0.867055	0.001497
0.235174	0.865595	0.001497
0.245037	0.863983	0.001497
0.255859	0.862193	0.001497
0.267800	0.860196	0.001497
0.281058	0.857955	0.001496
0.295881	0.855426	0.001496
0.312583	0.852549	0.001496
0.331568	0.849252	0.001496
0.353362	0.845438	0.001496
0.378669	0.840975	0.001496
0.408448	0.835690	0.001496
0.444041	0.829334	0.001496
0.487387	0.821550	0.001496
0.541396	0.811803	0.001496
0.610637	0.799253	0.001496
0.702729	0.782497	0.001496
0.820301	0.761066	0.002792
0.820301	0.761407	0.020514
0.820301	0.761671	0.038159
0.820300	0.761859	0.055747
0.820300	0.761972	0.073297
0.820300	0.762009	0.090827
0.820300	0.761972	0.108358
0.820299	0.761859	0.125908
0.820299	0.761671	0.143496
0.820299	0.761406	0.161141
0.820298	0.761065	0.178863
0.820298	0.760646	0.196682
0.820298	0.760149	0.214618
0.820297	0.759571	0.232692
0.220340	0.898465	0.000001
0.228796	0.898377	0.000001
0.237983	0.898280	0.000001
0.248010	0.898174	0.000001
0.259013	0.898055	0.000001
0.271153	0.897922	0.000001
0.284633	0.897774	0.000001
0.299704	0.897606	0.000001
0.316686	0.897415	0.000001
0.335988	0.897197	0.000001
0.358146	0.896944	0.000001
0.383876	0.896648	0.000001
0.414153	0.896298	0.000001
0.450341	0.895876	0.000001
0.494413	0.895360	0.000002
0.549324	0.894714	0.000002
0.619723	0.893882	0.000002
0.713355	0.892771	0.000002
0.819688	0.891509	0.002863
0.819688	0.891532	0.020571
0.819688	0.891549	0.038202
0.819688	0.891561	0.055775
0.819688	0.891568	0.073311
0.819688	0.891571	0.090827
0.819688	0.891568	0.108344
0.819688	0.891561	0.125879
0.819688	0.891549	0.143453
0.819688	0.891532	0.161084
0.819688	0.891509	0.178792
0.819688	0.891482	0.196597
0.819688	0.891450	0.214518
0.819688	0.891412	0.232577
0.218321	0.929492	0.001204
0.226666	0.930680	0.001204
0.235731	0.931989	0.001204
0.245627	0.933434	0.001204
0.256484	0.935039	0.001204
0.268465	0.936830	0.001204
0.281767	0.938839	0.001204
0.296639	0.941107	0.001204
0.313397	0.943685	0.001204
0.332444	0.946641	0.001204
0.354311	0.950062	0.001204
0.379702	0.954062	0.001204
0.409579	0.958801	0.001204
0.445290	0.964500	0.001204
0.488781	0.971479	0.001204
0.542968	0.980217	0.001204
0.612439	0.991469	0.001204
0.704837	1.006492	0.001204
0.819671	1.025190	0.002869
0.819671	1.024885	0.020577
0.819671	1.024649	0.038207
0.819672	1.024481	0.055780
0.819672	1.024381	0.073315
0.819672	1.024348	0.090831
0.819673	1.024381	0.108348
0.819673	1.024482	0.125883
0.819673	1.024650	0.143456
0.819673	1.024886	0.161087
0.819674	1.025191	0.178795
0.819674	1.025565	0.196599
0.819674	1.026009	0.214520
0.819675	1.026525	0.232579
0.211931	0.958792	0.004994
0.219922	0.961185	0.004994
0.228605	0.963820	0.004994
0.238082	0.966733	0.004993
0.248480	0.969965	0.004993
0.259954	0.973572	0.004993
0.272693	0.977618	0.004993
0.286937	0.982186	0.004993
0.302986	0.987380	0.004993
0.321228	0.993334	0.004993
0.342170	1.000224	0.004993
0.366488	1.008282	0.004993
0.395102	1.017827	0.004993
0.429304	1.029306	0.004993
0.470956	1.043363	0.004993
0.522853	1.060964	0.004992
0.589388	1.083629	0.004992
0.677882	1.113890	0.004992
0.801516	1.156305	0.004991
0.818418	1.161552	0.020694
0.818418	1.161057	0.038295
0.818419	1.160705	0.055839
0.818419	1.160494	0.073344
0.818420	1.160424	0.090831
0.818421	1.160494	0.108319
0.818421	1.160706	0.125825
0.818422	1.161059	0.143369
0.818423	1.161555	0.160970
0.818423	1.162195	0.178648
0.818424	1.162980	0.196423
0.818424	1.163913	0.214314
0.818425	1.164997	0.232343
0.201380	0.986417	0.011251
0.208788	0.989947	0.011251
0.216837	0.993833	0.011251
0.225623	0.998128	0.011251
0.235263	1.002895	0.011251
0.245900	1.008214	0.011251
0.257711	1.014181	0.011251
0.270915	1.020917	0.011251
0.285794	1.028577	0.011251
0.302705	1.037357	0.011251
0.322119	1.047517	0.011251
0.344663	1.059400	0.011252
0.371190	1.073476	0.011252
0.402896	1.090404	0.011252
0.441508	1.111133	0.011252
0.489618	1.137089	0.011252
0.551296	1.170511	0.011253
0.633330	1.215133	0.011253
0.747934	1.277678	0.011253
0.903024	1.362458	0.012796
0.903025	1.361582	0.032380
0.903026	1.360958	0.051900
0.903027	1.360585	0.071377
0.903028	1.360461	0.090834
0.903029	1.360587	0.110291
0.903030	1.360962	0.129768
0.903031	1.361587	0.149289
0.903032	1.362465	0.168872
0.903033	1.363597	0.188542
0.903034	1.364987	0.208319
0.903035	1.366639	0.228225
0.903036	1.368556	0.248285
0.186956	1.011566	0.019805
0.193569	1.016130	0.019805
0.200752	1.021155	0.019805
0.208594	1.026708	0.019804
0.217198	1.032873	0.019804
0.226691	1.039751	0.019804
0.237232	1.047466	0.019804
0.249018	1.056178	0.019804
0.262297	1.066082	0.019804
0.277391	1.077437	0.019804
0.294718	1.090574	0.019804
0.314839	1.105940	0.019804
0.338515	1.124143	0.019804
0.366814	1.146033	0.019804
0.401278	1.172838	0.019803
0.444219	1.206403	0.019803
0.499271	1.249624	0.019803
0.572493	1.307330	0.019803
0.674790	1.388215	0.019802
0.827978	1.509667	0.019801
0.905217	1.570232	0.032227
0.905372	1.569449	0.051790
0.905373	1.568907	0.071323
0.905375	1.568727	0.090834
0.905376	1.568910	0.110345
0.905378	1.569455	0.129878
0.905379	1.570364	0.149453
0.905381	1.571640	0.169092
0.905382	1.573286	0.188817
0.905384	1.575306	0.208649
0.905385	1.577706	0.228612
0.905387	1.580493	0.248728
0.169655	1.032925	0.030061
0.175312	1.038368	0.030061
0.181457	1.044360	0.030061
0.188165	1.050982	0.030061
0.195526	1.058333	0.030061
0.203647	1.066534	0.030061
0.212665	1.075735	0.030061
0.222747	1.086122	0.030061
0.234107	1.097933	0.030061
0.247019	1.111472	0.030061
0.261842	1.127138	0.030061
0.279054	1.145461	0.030061
0.299308	1.167166	0.030061
0.323516	1.193267	0.030061
0.352997	1.225230	0.030061
0.389729	1.265252	0.030060
0.436822	1.316787	0.030060
0.499455	1.385592	0.030060
0.586957	1.482030	0.030060
0.717984	1.626833	0.030060
0.905440	1.834254	0.032201
0.905442	1.832992	0.051777
0.905444	1.832237	0.071311
0.905446	1.831988	0.090824
0.905449	1.832243	0.110337
0.905451	1.833003	0.129871
0.905453	1.834271	0.149448
0.905455	1.836050	0.169089
0.905457	1.838345	0.188815
0.905460	1.841161	0.208649
0.905462	1.844508	0.228614
0.905464	1.848393	0.248732
0.148279	1.051644	0.042742
0.152755	1.057857	0.042742
0.157618	1.064697	0.042742
0.162926	1.072256	0.042742
0.168750	1.080647	0.042742
0.175177	1.090008	0.042742
0.182313	1.100511	0.042742
0.190291	1.112368	0.042742
0.199280	1.125850	0.042742
0.209498	1.141305	0.042742
0.221227	1.159187	0.042742
0.234848	1.180103	0.042742
0.250875	1.204879	0.042742
0.270032	1.234674	0.042742
0.293361	1.271160	0.042742
0.322429	1.316846	0.042742
0.359695	1.375675	0.042742
0.409260	1.454218	0.042742
0.478506	1.564309	0.042742
0.582198	1.729612	0.042742
0.754796	2.005364	0.042742
1.099725	2.557335	0.042742
2.134610	4.215206	0.042742
-nan	inf	-nan
-nan	inf	-nan
-nan	inf	-nan
-nan	inf	-nan
-nan	inf	-nan
-nan	inf	-nan
-nan	inf	-nan
-nan	inf	-nan
-nan	inf	-nan
0.125129	1.065402	0.056471
0.128326	1.072181	0.056471
0.131800	1.079644	0.056472
0.135592	1.087891	0.056472
0.139753	1.097046	0.056472
0.144344	1.107260	0.056472
0.149442	1.118719	0.056472
0.155141	1.131656	0.056472
0.161562	1.146366	0.056472
0.168861	1.163228	0.056472
0.177241	1.182738	0.056472
0.186971	1.205558	0.056472
0.198420	1.232591	0.056472
0.212104	1.265098	0.056472
0.228770	1.304906	0.056472
0.249534	1.354751	0.056472
0.276155	1.418934	0.056472
0.311561	1.504627	0.056473
0.361025	1.624735	0.056473
0.435092	1.805076	0.056473
0.558376	2.105903	0.056474
0.564972	2.120436	0.067638
0.564972	2.119445	0.079237
0.564971	2.119115	0.090824
0.564971	2.119444	0.102411
0.564970	2.120436	0.114011
0.564970	2.122090	0.125635
0.564969	2.124414	0.137298
0.564969	2.127412	0.149012
0.564969	2.131092	0.160789
0.564968	2.135466	0.172644
0.564968	2.140545	0.184589
0.100312	1.074413	0.071189
0.102140	1.081564	0.071189
0.104125	1.089434	0.071189
0.106292	1.098133	0.071189
0.108669	1.107789	0.071189
0.111293	1.118562	0.071189
0.114205	1.130648	0.071189
0.117462	1.144293	0.071189
0.121132	1.159807	0.071189
0.125303	1.177592	0.071189
0.130091	1.198171	0.071189
0.135651	1.222240	0.071188
0.142194	1.250753	0.071188
0.150014	1.285041	0.071188
0.159537	1.327029	0.071188
0.171403	1.379604	0.071188
0.186616	1.447305	0.071188
0.206850	1.537696	0.071188
0.235119	1.664393	0.071188
0.277451	1.854635	0.071188
0.336644	2.120946	0.071975
0.336644	2.119293	0.078267
0.336644	2.118303	0.084546
0.336644	2.117974	0.090818
0.336644	2.118304	0.097089
0.336644	2.119295	0.103368
0.336644	2.120949	0.109660
0.336644	2.123271	0.115973
0.336644	2.126267	0.122313
0.336644	2.129945	0.128688
0.336644	2.134316	0.135105
0.336644	2.139391	0.141571
0.075307	1.078373	0.086014
0.075754	1.085687	0.086014
0.076238	1.093736	0.086014
0.076768	1.102633	0.086014
0.077348	1.112509	0.086014
0.077989	1.123526	0.086013
0.078701	1.135887	0.086013
0.079496	1.149842	0.086013
0.080392	1.165710	0.086013
0.081411	1.183899	0.086013
0.082580	1.204945	0.086013
0.083938	1.229562	0.086013
0.085536	1.258722	0.086013
0.087446	1.293788	0.086012
0.089772	1.336729	0.086012
0.092670	1.390497	0.086012
0.096385	1.459733	0.086012
0.101326	1.552170	0.086011
0.108230	1.681732	0.086010
0.118567	1.876269	0.086009
0.131492	2.119579	0.086307
0.131492	2.117928	0.087808
0.131492	2.116940	0.089306
0.131492	2.116611	0.090802
0.131493	2.116941	0.092298
0.131493	2.117931	0.093796
0.131493	2.119584	0.095297
0.131493	2.121903	0.096802
0.131493	2.124896	0.098315
0.131493	2.128570	0.099835
0.131494	2.132936	0.101366
0.131494	2.138006	0.102908
0.049323	1.077397	0.101423
0.048334	1.084670	0.101423
0.047260	1.092676	0.101423
0.046087	1.101524	0.101423
0.044801	1.111346	0.101423
0.043381	1.122303	0.101423
0.041805	1.134597	0.101423
0.040043	1.148476	0.101423
0.038057	1.164257	0.101423
0.035800	1.182347	0.101423
0.033209	1.203279	0.101424
0.030200	1.227762	0.101424
0.026659	1.256764	0.101424
0.022428	1.291640	0.101424
0.017274	1.334349	0.101424
0.010853	1.387827	0.101425
