0.708784	0.823108	0.000649
0.820072	0.809938	0.002823
0.820072	0.810159	0.020539
0.820072	0.810331	0.038179
0.820072	0.810453	0.055762
0.820071	0.810526	0.073306
0.820071	0.810551	0.090831
0.820071	0.810526	0.108357
0.820071	0.810453	0.125901
0.820071	0.810331	0.143484
0.820071	0.810159	0.161124
0.820071	0.809937	0.178841
0.820071	0.809665	0.196655
0.820071	0.809342	0.214585
0.820071	0.808966	0.232653
0.220185	0.908779	0.000096
0.228632	0.909115	0.000096
0.237810	0.909486	0.000096
0.247827	0.909895	0.000096
0.258819	0.910349	0.000096
0.270947	0.910856	0.000096
0.284413	0.911425	0.000096
0.299469	0.912067	0.000096
0.316433	0.912796	0.000096
0.335716	0.913633	0.000096
0.357852	0.914601	0.000096
0.383556	0.915734	0.000096
0.413802	0.917075	0.000096
0.449954	0.918688	0.000096
0.493981	0.920663	0.000096
0.548837	0.923137	0.000096
0.619165	0.926322	0.000096
0.712704	0.930574	0.000096
0.819647	0.935436	0.002870
0.819647	0.935350	0.020577
0.819647	0.935285	0.038207
0.819648	0.935238	0.055779
0.819648	0.935209	0.073314
0.819648	0.935200	0.090829
0.819648	0.935210	0.108345
0.819649	0.935238	0.125880
0.819649	0.935285	0.143452
0.819649	0.935351	0.161082
0.819649	0.935436	0.178789
0.819650	0.935540	0.196593
0.819650	0.935665	0.214514
0.819650	0.935809	0.232572
0.216618	0.939615	0.002214
0.224869	0.941220	0.002214
0.233832	0.942987	0.002214
0.243616	0.944939	0.002214
0.254351	0.947106	0.002214
0.266196	0.949524	0.002214
0.279349	0.952237	0.002214
0.294053	0.955300	0.002214
0.310622	0.958782	0.002214
0.329454	0.962774	0.002214
0.351074	0.967393	0.002214
0.376179	0.972795	0.002214
0.405719	0.979194	0.002214
0.441027	0.986890	0.002214
0.484027	0.996314	0.002214
0.537602	1.008114	0.002214
0.606289	1.023309	0.002214
0.697644	1.043596	0.002215
0.818847	1.070578	0.002966
0.818848	1.070163	0.020653
0.818848	1.069841	0.038265
0.818849	1.069612	0.055819
0.818849	1.069475	0.073334
0.818850	1.069430	0.090831
0.818851	1.069476	0.108329
0.818851	1.069613	0.125845
0.818852	1.069843	0.143399
0.818852	1.070165	0.161010
0.818853	1.070580	0.178698
0.818853	1.071091	0.196483
0.818854	1.071697	0.214385
0.818854	1.072401	0.232424
0.208794	0.968440	0.006854
0.216612	0.971231	0.006854
0.225106	0.974303	0.006854
0.234377	0.977698	0.006854
0.244550	0.981467	0.006854
0.255775	0.985671	0.006854
0.268239	0.990388	0.006854
0.282173	0.995714	0.006854
0.297874	1.001769	0.006854
0.315721	1.008710	0.006854
0.336209	1.016742	0.006854
0.359999	1.026136	0.006854
0.387993	1.037264	0.006854
0.421452	1.050646	0.006854
0.462201	1.067034	0.006854
0.512972	1.087553	0.006854
0.578063	1.113976	0.006853
0.664637	1.149254	0.006853
0.785587	1.198701	0.006853
0.903570	1.246812	0.012746
0.903571	1.246155	0.032342
0.903572	1.245688	0.051874
0.903573	1.245408	0.071365
0.903574	1.245315	0.090834
0.903574	1.245409	0.110303
0.903575	1.245690	0.129794
0.903576	1.246159	0.149327
0.903577	1.246817	0.168923
0.903578	1.247666	0.188606
0.903579	1.248708	0.208395
0.903580	1.249946	0.228315
0.903581	1.251384	0.248388
0.196876	0.995304	0.013922
0.204036	0.999200	0.013922
0.211815	1.003488	0.013922
0.220306	1.008227	0.013922
0.229622	1.013488	0.013922
0.239902	1.019358	0.013922
0.251316	1.025943	0.013922
0.264077	1.033377	0.013922
0.278456	1.041830	0.013922
0.294800	1.051520	0.013922
0.313562	1.062731	0.013922
0.335349	1.075845	0.013922
0.360986	1.091380	0.013923
0.391627	1.110060	0.013923
0.428944	1.132936	0.013923
0.475439	1.161580	0.013923
0.535047	1.198464	0.013923
0.614328	1.247709	0.013923
0.725088	1.316731	0.013924
0.890942	1.420369	0.013924
0.902717	1.426799	0.032401
0.902719	1.426087	0.051914
0.902720	1.425661	0.071384
0.902721	1.425520	0.090834
0.902723	1.425664	0.110283
0.902724	1.426092	0.129754
0.902725	1.426806	0.149267
0.902727	1.427808	0.168844
0.902728	1.429101	0.188506
0.902730	1.430688	0.208276
0.902731	1.432574	0.228175
0.902732	1.434763	0.248228
0.181234	1.019449	0.023198
0.187531	1.024338	0.023198
0.194371	1.029719	0.023198
0.201838	1.035667	0.023198
0.210030	1.042269	0.023198
0.219070	1.049635	0.023198
0.229107	1.057899	0.023198
0.240329	1.067229	0.023198
0.252973	1.077837	0.023198
0.267345	1.089998	0.023198
0.283844	1.104068	0.023198
0.303003	1.120526	0.023198
0.325547	1.140021	0.023198
0.352492	1.163465	0.023198
0.385307	1.192174	0.023198
0.426194	1.228121	0.023198
0.478613	1.274411	0.023198
0.548331	1.336212	0.023198
0.645732	1.422836	0.023198
0.791585	1.552905	0.023198
0.905392	1.653959	0.032214
0.905394	1.652940	0.051789
0.905396	1.652331	0.071322
0.905398	1.652130	0.090834
0.905400	1.652336	0.110346
0.905402	1.652949	0.129879
0.905404	1.653972	0.149455
0.905406	1.655408	0.169094
0.905408	1.657259	0.188819
0.905410	1.659532	0.208653
0.905412	1.662232	0.228616
0.905414	1.665367	0.248733
0.162290	1.040150	0.034433
0.167540	1.045891	0.034433
0.173244	1.052210	0.034433
0.179469	1.059193	0.034433
0.186300	1.066946	0.034433
0.193838	1.075595	0.034433
0.202207	1.085298	0.034433
0.211564	1.096253	0.034433
0.222107	1.108708	0.034433
0.234091	1.122987	0.034433
0.247848	1.139508	0.034434
0.263823	1.158832	0.034434
0.282620	1.181722	0.034434
0.305088	1.209249	0.034434
0.332449	1.242957	0.034434
0.366541	1.285165	0.034434
0.410247	1.339515	0.034434
0.468378	1.412079	0.034434
0.549590	1.513786	0.034435
0.671198	1.666500	0.034435
0.873614	1.921244	0.034436
0.900225	1.953498	0.052030
0.900228	1.952646	0.071442
0.900230	1.952365	0.090834
0.900233	1.952654	0.110225
0.900236	1.953514	0.129638
0.900238	1.954947	0.149093
0.900241	1.956956	0.168612
0.900244	1.959548	0.188216
0.900246	1.962729	0.207927
0.900249	1.966509	0.227767
0.900252	1.970898	0.247760
0.140616	1.056844	0.047287
0.144670	1.063272	0.047287
0.149073	1.070347	0.047287
0.153879	1.078166	0.047287
0.159153	1.086846	0.047287
0.164972	1.096530	0.047287
0.171433	1.107394	0.047286
0.178657	1.119660	0.047286
0.186797	1.133606	0.047286
0.196049	1.149593	0.047286
0.206670	1.168091	0.047286
0.219003	1.189728	0.047286
0.233515	1.215358	0.047286
0.250861	1.246180	0.047286
0.271986	1.283923	0.047286
0.298307	1.331183	0.047286
0.332051	1.392040	0.047286
0.376933	1.473292	0.047286
0.439636	1.587179	0.047285
0.533532	1.758186	0.047285
0.689828	2.043459	0.047284
0.733121	2.121274	0.059810
0.733120	2.120281	0.075328
0.733119	2.119950	0.090829
0.733119	2.120280	0.106330
0.733118	2.121271	0.121848
0.733117	2.122927	0.137400
0.733116	2.125251	0.153003
0.733116	2.128251	0.168673
0.733115	2.131934	0.184429
0.733114	2.136310	0.200288
0.733113	2.141393	0.216270
0.117544	1.068729	0.060963
0.120323	1.075646	0.060963
0.123341	1.083259	0.060963
0.126637	1.091673	0.060963
0.130253	1.101013	0.060963
0.134242	1.111433	0.060963
0.138672	1.123123	0.060963
0.143625	1.136321	0.060963
0.149205	1.151328	0.060963
0.155548	1.168531	0.060963
0.162830	1.188435	0.060963
0.171285	1.211716	0.060962
0.181235	1.239294	0.060962
0.193127	1.272459	0.060962
0.207609	1.313070	0.060962
0.225654	1.363922	0.060962
0.248788	1.429402	0.060962
0.279556	1.516826	0.060962
0.322541	1.639362	0.060961
0.386908	1.823350	0.060961
0.490337	2.119576	0.061219
0.490337	2.117924	0.071101
0.490337	2.116935	0.080961
0.490337	2.116605	0.090810
0.490337	2.116934	0.100660
0.490336	2.117923	0.110520
0.490336	2.119575	0.120402
0.490336	2.121893	0.130316
0.490336	2.124884	0.140273
0.490335	2.128558	0.150284
0.490335	2.132922	0.160361
0.490335	2.137991	0.170516
0.091599	1.076355	0.076356
0.092945	1.083585	0.076356
0.094407	1.091544	0.076356
0.096004	1.100339	0.076356
0.097755	1.110103	0.076356
0.099687	1.120996	0.076356
0.101833	1.133217	0.076356
0.104232	1.147014	0.076356
0.106935	1.162702	0.076356
0.110008	1.180686	0.076356
0.113535	1.201494	0.076356
0.117631	1.225832	0.076356
0.122450	1.254663	0.076356
0.128211	1.289333	0.076356
0.135226	1.331790	0.076356
0.143967	1.384952	0.076356
0.155173	1.453408	0.076356
0.170078	1.544807	0.076356
0.190901	1.672916	0.076356
0.222083	1.865279	0.076356
0.263437	2.120573	0.077093
0.263437	2.118920	0.081676
0.263437	2.117931	0.086248
0.263437	2.117602	0.090816
0.263437	2.117932	0.095383
0.263437	2.118922	0.099956
0.263437	2.120576	0.104538
0.263437	2.122897	0.109136
0.263437	2.125892	0.113753
0.263437	2.129569	0.118396
0.263437	2.133938	0.123069
0.263437	2.139011	0.127778
0.065673	1.078607	0.091732
0.065587	1.085929	0.091732
0.065494	1.093990	0.091732
0.065392	1.102898	0.091732
0.065280	1.112787	0.091732
0.065157	1.123819	0.091732
0.065020	1.136196	0.091732
0.064867	1.150170	0.091732
0.064695	1.166058	0.091732
0.064499	1.184271	0.091732
0.064274	1.205345	0.091732
0.064013	1.229994	0.091732
0.063706	1.259193	0.091732
0.063338	1.294305	0.091732
0.062891	1.337303	0.091732
0.062334	1.391142	0.091732
0.061619	1.460470	0.091732
0.060669	1.553030	0.091732
0.059341	1.682765	0.091732
0.057353	1.877562	0.091732
0.054884	2.119526	0.091673
0.054884	2.117875	0.091385
0.054884	2.116887	0.091097
0.054884	2.116558	0.090810
0.054884	2.116888	0.090522
0.054884	2.117878	0.090235
0.054884	2.119530	0.089946
0.054884	2.121850	0.089657
0.054884	2.124842	0.089367
0.054884	2.128516	0.089075
0.054884	2.132882	0.088781
0.054884	2.137951	0.088484
0.039791	1.075743	0.107081
0.038276	1.082948	0.107081
0.036630	1.090879	0.107081
0.034833	1.099644	0.107081
0.032862	1.109374	0.107081
0.030686	1.120229	0.107081
0.028271	1.132408	0.107081
0.025570	1.146157	0.107081
0.022527	1.161790	0.107081
0.019069	1.179711	0.107081
0.015098	1.200447	0.107081
0.010488	1.224700	0.107081
0.005062	1.253431	0.107081
-0.001422	1.287981	0.107081
-0.009319	1.330289	0.107081
-0.019159	1.383266	0.107081
-0.031774	1.451484	0.107081
-0.048553	1.542565	0.107081
-0.071993	1.670228	0.107081
-0.107095	1.861920	0.107081
-0.154038	2.118478	0.106279
-0.154038	2.116829	0.101111
-0.154039	2.115842	0.095955
-0.154039	2.115514	0.090804
-0.154039	2.115845	0.085653
-0.154039	2.116835	0.080496
-0.154039	2.118486	0.075329
-0.154039	2.120804	0.070144
-0.154039	2.123795	0.064937
-0.154039	2.127466	0.059702
-0.154039	2.131829	0.054432
-0.154040	2.136895	0.049121
0.014703	1.067814	0.121959
0.011803	1.074693	0.121959
0.008651	1.082265	0.121959
0.005211	1.090633	0.121959
0.001437	1.099922	0.121959
-0.002727	1.110285	0.121959
-0.007351	1.121912	0.121959
-0.012521	1.135039	0.121959
-0.018347	1.149964	0.121959
-0.024968	1.167073	0.121959
-0.032569	1.186869	0.121959
-0.041395	1.210023	0.121959
-0.051781	1.237452	0.121959
-0.064195	1.270436	0.121959
-0.079312	1.310827	0.121959
-0.098148	1.361402	0.121959
-0.122297	1.426526	0.121959
-0.154415	1.513475	0.121958
-0.199286	1.635345	0.121958
-0.266476	1.818333	0.121958
-0.378315	2.123578	0.121958
-0.426504	2.254020	0.113795
-0.426505	2.252922	0.102289
-0.426505	2.252557	0.090796
-0.426505	2.252925	0.079302
-0.426506	2.254027	0.067796
-0.426506	2.255865	0.056265
-0.426506	2.258445	0.044696
-0.426507	2.261773	0.033077
-0.426507	2.265859	0.021395
-0.426507	2.270714	0.009635
-0.426508	2.276351	-0.002215
-0.008875	1.055080	0.135942
-0.013078	1.061435	0.135942
-0.017644	1.068430	0.135942
-0.022628	1.076161	0.135942
-0.028097	1.084743	0.135942
-0.034131	1.094317	0.135942
-0.040831	1.105059	0.135942
-0.048322	1.117186	0.135942
-0.056762	1.130975	0.135942
-0.066356	1.146781	0.135942
-0.077370	1.165070	0.135942
-0.090159	1.186462	0.135943
-0.105208	1.211803	0.135943
-0.123195	1.242276	0.135943
-0.145100	1.279593	0.135943
-0.172394	1.326320	0.135943
-0.207385	1.386489	0.135943
-0.253926	1.466822	0.135943
-0.318946	1.579422	0.135943
-0.416311	1.748496	0.135944
-0.578383	2.030543	0.135944
-0.703105	2.247005	0.126673
-0.703106	2.245914	0.108721
-0.703107	2.245552	0.090788
-0.703108	2.245919	0.072855
-0.703109	2.247016	0.054903
-0.703110	2.248845	0.036912
-0.703111	2.251413	0.018862
-0.703112	2.254725	0.000733
-0.703113	2.258790	-0.017494
-0.703115	2.263621	-0.035842
-0.703116	2.269230	-0.054330
-0.072923	0.828887	0.173926
-0.080663	0.825936	0.173926
-0.089072	0.822689	0.173926
-0.098251	0.819100	0.173926
-0.108322	0.815116	0.173926
-0.119435	0.810671	0.173926
-0.131773	0.805684	0.173926
-0.145568	0.800054	0.173926
-0.161112	0.793653	0.173926
-0.178780	0.786315	0.173926
-0.199063	0.777825	0.173926
-0.222614	0.767894	0.173926
-0.250328	0.756130	0.173926
-0.283452	0.741983	0.173926
-0.323792	0.724659	0.173926
-0.374055	0.702967	0.173926
-0.438494	0.675035	0.173926
-0.524199	0.637742	0.173926
-0.643935	0.585470	0.173926
-0.823233	0.506983	0.173926
-1.121681	0.376055	0.173926
-1.718113	0.113976	0.173926
-2.025935	-0.020903	0.139477
-2.025936	-0.020654	0.090750
-2.025937	-0.020905	0.042023
-2.025938	-0.021656	-0.006756
-2.025939	-0.022908	-0.055642
-2.025941	-0.024666	-0.104688
-2.025942	-0.026934	-0.153947
-2.025943	-0.029718	-0.203475
-2.025944	-0.033026	-0.253328
-2.025945	-0.036868	-0.303565
-0.060034	0.801620	0.166275
-0.067063	0.797548	0.166275
-0.074698	0.793065	0.166275
-0.083033	0.788112	0.166275
-0.092178	0.782613	0.166275
-0.102268	0.776478	0.166275
-0.113472	0.769596	0.166275
-0.125998	0.761825	0.166275
-0.140112	0.752990	0.166275
-0.156155	0.742862	0.166275
-0.174572	0.731144	0.166275
-0.195957	0.717437	0.166274
-0.221122	0.701201	0.166274
-0.251199	0.681675	0.166274
-0.287828	0.657766	0.166274
-0.333467	0.627827	0.166274
-0.391978	0.589276	0.166273
-0.469798	0.537805	0.166273
-0.578518	0.465662	0.166272
-0.741318	0.357339	0.166271
-1.012298	0.176643	0.166269
-1.553821	-0.185044	0.166265
-3.178402	-1.271293	0.166254
-nan	-inf	-nan
-nan	-inf	-nan
-nan	-inf	-nan
-nan	-inf	-nan
-nan	-inf	-nan
-nan	-inf	-nan
-nan	-inf	-nan
-nan	-inf	-nan
-nan	-inf	-nan
-0.043272	0.777365	0.156341
-0.049374	0.772296	0.156341
-0.056004	0.766715	0.156341
-0.063241	0.760548	0.156341
-0.071182	0.753701	0.156341
-0.079943	0.746063	0.156341
-0.089671	0.737494	0.156341
-0.100548	0.727819	0.156341
-0.112804	0.716819	0.156341
-0.126733	0.704209	0.156341
-0.142725	0.689619	0.156342
-0.161294	0.672553	0.156342
-0.183145	0.652338	0.156342
-0.209262	0.628027	0.156342
-0.241068	0.598257	0.156342
-0.280697	0.560981	0.156342
-0.331504	0.512980	0.156342
-0.399079	0.448893	0.156342
-0.493487	0.359066	0.156342
-0.634858	0.224187	0.156343
-0.870178	-0.000816	0.156343
-1.340468	-0.451218	0.156345
-1.661465	-0.758126	0.131003
-1.661464	-0.757677	0.090761
-1.661464	-0.758127	0.050518
-1.661463	-0.759477	0.010233
-1.661462	-0.761729	-0.030141
-1.661461	-0.764892	-0.070646
-1.661461	-0.768972	-0.111328
-1.661460	-0.773982	-0.152231
-1.661459	-0.779935	-0.193403
-1.661459	-0.786848	-0.234892
-0.023749	0.757403	0.144763
-0.028773	0.751512	0.144763
-0.034231	0.745028	0.144763
-0.040190	0.737861	0.144763
-0.046727	0.729906	0.144763
-0.053941	0.721031	0.144763
-0.061950	0.711073	0.144763
-0.070905	0.699832	0.144763
-0.080995	0.687050	0.144763
-0.092463	0.672398	0.144763
-0.105629	0.655444	0.144763
-0.120918	0.635614	0.144763
-0.138907	0.612124	0.144763
-0.160409	0.583877	0.144763
-0.186595	0.549285	0.144763
-0.219222	0.505971	0.144763
-0.261051	0.450197	0.144763
-0.316685	0.375732	0.144763
-0.394410	0.271358	0.144763
-0.510797	0.114637	0.144763
-0.704529	-0.146796	0.144763
-1.091691	-0.670107	0.144763
-1.455257	-1.161181	0.126208
-1.455261	-1.160630	0.090767
-1.455265	-1.161196	0.055324
-1.455270	-1.162880	0.019844
-1.455274	-1.165687	-0.015715
-1.455279	-1.169625	-0.051389
-1.455283	-1.174704	-0.087219
-1.455288	-1.180938	-0.123245
-1.455292	-1.188345	-0.159507
-1.455297	-1.196945	-0.196049
-0.000910	0.741186	0.131212
-0.004673	0.734628	0.131212
-0.008761	0.727409	0.131212
-0.013224	0.719431	0.131212
-0.018120	0.710575	0.131212
-0.023523	0.700694	0.131212
-0.029521	0.689609	0.131212
-0.036228	0.677095	0.131212
-0.043785	0.662866	0.131212
-0.052375	0.646554	0.131212
-0.062235	0.627681	0.131212
-0.073685	0.605605	0.131212
-0.087159	0.579455	0.131212
-0.103263	0.548009	0.131212
-0.122875	0.509500	0.131212
-0.147310	0.461282	0.131211
-0.178638	0.399192	0.131211
-0.220305	0.316295	0.131211
-0.278516	0.200104	0.131211
-0.365683	0.025640	0.131210
-0.510773	-0.265389	0.131209
-0.795337	-0.837078	0.130957
-0.795335	-0.835665	0.110856
-0.795334	-0.835193	0.090776
-0.795333	-0.835662	0.070696
-0.795331	-0.837073	0.050595
-0.795330	-0.839429	0.030450
-0.795329	-0.842738	0.010240
-0.795327	-0.847007	-0.010059
-0.795326	-0.852249	-0.030468
-0.795325	-0.858479	-0.051011
-0.795323	-0.865713	-0.071713
0.023267	0.730070	0.116878
0.020840	0.723054	0.116878
0.018202	0.715332	0.116878
0.015323	0.706798	0.116878
0.012164	0.697324	0.116878
0.008679	0.686755	0.116878
0.004808	0.674897	0.116878
0.000481	0.661510	0.116878
-0.004394	0.646288	0.116878
-0.009936	0.628839	0.116878
-0.016298	0.608649	0.116878
-0.023685	0.585034	0.116878
-0.032378	0.557061	0.116878
-0.042768	0.523421	0.116878
-0.055421	0.482227	0.116878
-0.071187	0.430645	0.116878
-0.091399	0.364225	0.116878
-0.118281	0.275546	0.116878
-0.155838	0.151249	0.116878
-0.212078	-0.035385	0.116879
-0.305690	-0.346720	0.116879
-0.470303	-0.894879	0.115834
-0.470304	-0.893422	0.103307
-0.470304	-0.892938	0.090794
-0.470304	-0.893426	0.078281
-0.470304	-0.894887	0.065754
-0.470305	-0.897326	0.053200
-0.470305	-0.900747	0.040605
-0.470305	-0.905163	0.027955
-0.470306	-0.910583	0.015236
-0.470306	-0.917023	0.002433
-0.470306	-0.924502	-0.010468
0.048717	0.723893	0.101781
0.047695	0.716623	0.101781
0.046584	0.708622	0.101781
0.045372	0.699778	0.101781
0.044042	0.689961	0.101781
0.042574	0.679009	0.101781
0.040945	0.666722	0.101781
0.039123	0.652850	0.101781
0.037070	0.637077	0.101781
0.034736	0.618996	0.101781
0.032058	0.598075	0.101781
0.028947	0.573605	0.101781
0.025287	0.544618	0.101781
0.020912	0.509760	0.101781
0.015584	0.467074	0.101781
0.008946	0.413625	0.101781
0.000436	0.344799	0.101781
-0.010883	0.252909	0.101781
-0.026697	0.124111	0.101781
-0.050377	-0.069282	0.101781
-0.089793	-0.391889	0.101780
-0.168563	-1.037648	0.101780
-0.404892	-2.977184	0.101779
-nan	-inf	-nan
-nan	-inf	-nan
-nan	-inf	-nan
-nan	-inf	-nan
-nan	-inf	-nan
-nan	-inf	-nan
-nan	-inf	-nan
-nan	-inf	-nan
-nan	-inf	-nan
0.074699	0.722793	0.086376
0.075111	0.715479	0.086376
0.075560	0.707427	0.086376
0.076049	0.698529	0.086376
0.076586	0.688651	0.086376
0.077178	0.677630	0.086376
0.077836	0.665266	0.086376
0.078572	0.651308	0.086376
0.079400	0.635437	0.086376
0.080342	0.617243	0.086376
0.081423	0.596192	0.086376
0.082679	0.571570	0.086376
0.084156	0.542403	0.086376
0.085922	0.507327	0.086376
0.088073	0.464376	0.086376
0.090752	0.410594	0.086376
0.094187	0.341339	0.086376
0.098756	0.248876	0.086376
0.105139	0.119276	0.086376
0.114698	-0.075321	0.086376
0.130608	-0.399939	0.086376
0.149976	-0.795068	0.086955
0.149976	-0.793690	0.088883
0.149976	-0.793231	0.090809
0.149976	-0.793690	0.092736
0.149976	-0.795068	0.094664
0.149976	-0.797369	0.096597
0.149976	-0.800599	0.098535
0.149976	-0.804767	0.100483
0.149976	-0.809884	0.102441
0.149976	-0.815964	0.104412
0.149976	-0.823025	0.106397
0.100466	0.726820	0.071092
0.102301	0.719671	0.071092
0.104296	0.711802	0.071092
0.106473	0.703105	0.071092
0.108861	0.693451	0.071092
0.111497	0.682680	0.071092
0.114423	0.670596	0.071092
0.117695	0.656954	0.071092
0.121381	0.641442	0.071092
0.125571	0.623661	0.071092
0.130382	0.603086	0.071092
0.135967	0.579022	0.071092
0.142540	0.550515	0.071092
0.150396	0.516234	0.071092
0.159963	0.474255	0.071092
0.171884	0.421691	0.071092
0.187167	0.354005	0.071092
0.207493	0.263636	0.071092
0.235891	0.136971	0.071092
0.278414	-0.053219	0.071092
0.349196	-0.370486	0.071093
0.440368	-0.779205	0.073434
0.440369	-0.777843	0.082129
0.440369	-0.777391	0.090816
0.440369	-0.777849	0.099502
0.440370	-0.779217	0.108198
0.440370	-0.781499	0.116913
0.440371	-0.784702	0.125656
0.440371	-0.788833	0.134437
0.440371	-0.793906	0.143267
0.440372	-0.799932	0.152154
0.440372	-0.806930	0.161110
0.125275	0.735864	0.056382
0.128481	0.729086	0.056382
0.131964	0.721627	0.056382
0.135766	0.713382	0.056382
0.139937	0.704230	0.056382
0.144540	0.694020	0.056382
0.149650	0.682565	0.056382
0.155364	0.669633	0.056381
0.161802	0.654928	0.056381
0.169119	0.638072	0.056381
0.177520	0.618568	0.056381
0.187275	0.595756	0.056381
0.198753	0.568732	0.056381
0.212473	0.536236	0.056381
0.229181	0.496441	0.056381
0.249999	0.446612	0.056381
0.276688	0.382449	0.056381
0.312186	0.296782	0.056381
0.361779	0.176708	0.056381
0.436041	-0.003585	0.056381
0.559653	-0.304343	0.056380
0.806685	-0.906369	0.056379
1.547853	-2.714581	0.056377
-nan	-inf	-nan
-nan	-inf	-nan
-nan	-inf	-nan
-nan	-inf	-nan
-nan	-inf	-nan
-nan	-inf	-nan
-nan	-inf	-nan
-nan	-inf	-nan
-nan	-inf	-nan
0.148410	0.749656	0.042659
0.152894	0.743446	0.042659
0.157765	0.736611	0.042659
0.163082	0.729057	0.042659
0.168915	0.720671	0.042659
0.175353	0.711316	0.042659
0.182500	0.700820	0.042659
0.190491	0.688970	0.042659
0.199495	0.675497	0.042659
0.209729	0.660052	0.042659
0.221478	0.642181	0.042659
0.235120	0.621279	0.042659
0.251174	0.596518	0.042659
0.270361	0.566742	0.042659
0.293729	0.530279	0.042659
0.322844	0.484622	0.042659
0.360170	0.425830	0.042659
0.409816	0.347336	0.042659
0.479174	0.237315	0.042660
0.583035	0.072117	0.042660
0.755913	-0.203460	0.042661
0.845589	-0.345534	0.054570
0.845589	-0.344521	0.072709
0.845588	-0.344183	0.090829
0.845587	-0.344520	0.108948
0.845586	-0.345532	0.127087
0.845585	-0.347222	0.145266
0.845584	-0.349595	0.163504
0.845583	-0.352657	0.181821
0.845582	-0.356417	0.200238
0.845581	-0.360885	0.218776
0.845580	-0.366073	0.237456
0.169206	0.767800	0.030329
0.174838	0.762337	0.030329
0.180956	0.756323	0.030329
0.187635	0.749677	0.030329
0.194963	0.742300	0.030329
0.203049	0.734069	0.030328
0.212027	0.724835	0.030328
0.222065	0.714409	0.030328
0.233375	0.702555	0.030328
0.246231	0.688967	0.030328
0.260989	0.673244	0.030328
0.278126	0.654854	0.030328
0.298291	0.633070	0.030328
0.322394	0.606873	0.030328
0.351747	0.574793	0.030328
0.388320	0.534624	0.030328
0.435207	0.482900	0.030328
0.497570	0.413841	0.030327
0.584694	0.317045	0.030327
0.715158	0.171704	0.030327
0.932319	-0.070747	0.030326
1.014765	-0.161879	0.046691
1.014765	-0.161017	0.068773
1.014766	-0.160731	0.090831
1.015555	-0.161903	0.112907
1.015556	-0.162768	0.135007
1.015556	-0.164212	0.157155
1.015557	-0.166239	0.179376
1.015557	-0.168854	0.201693
1.015558	-0.172064	0.224132
1.015558	-0.175878	0.246719
1.015559	-0.180307	0.269479
0.187053	0.789780	0.019742
0.193670	0.785221	0.019742
0.200860	0.780203	0.019742
0.208708	0.774657	0.019742
0.217318	0.768500	0.019742
0.226819	0.761631	0.019742
0.237369	0.753925	0.019742
0.249163	0.745226	0.019742
0.262453	0.735333	0.019742
0.277559	0.723994	0.019742
0.294900	0.710873	0.019742
0.315037	0.695527	0.019742
0.338732	0.677348	0.019742
0.367053	0.655486	0.019742
0.401544	0.628715	0.019742
0.444518	0.595194	0.019742
0.499613	0.552029	0.019742
0.572892	0.494398	0.019742
0.675268	0.413620	0.019742
0.819474	0.299597	0.020592
0.819473	0.300739	0.038218
0.819472	0.301552	0.055786
0.819471	0.302039	0.073317
0.819470	0.302202	0.090828
0.819468	0.302040	0.108340
0.819467	0.301554	0.125870
0.819466	0.300741	0.143438
0.819465	0.299601	0.161064
0.819464	0.298129	0.178767
0.819463	0.296321	0.196566
0.819462	0.294174	0.214482
0.819461	0.291680	0.232535
0.201455	0.814945	0.011203
0.208868	0.811421	0.011203
0.216922	0.807543	0.011203
0.225713	0.803256	0.011203
0.235358	0.798497	0.011203
0.246001	0.793188	0.011203
0.257818	0.787232	0.011203
0.271030	0.780508	0.011203
0.285917	0.772862	0.011203
0.302838	0.764098	0.011203
0.322263	0.753957	0.011203
0.344819	0.742096	0.011203
0.371361	0.728045	0.011203
0.403085	0.711149	0.011203
0.441720	0.690457	0.011203
0.489857	0.664549	0.011203
0.551571	0.631188	0.011203
0.633652	0.586647	0.011203
0.748323	0.524216	0.011203
0.819525	0.485885	0.020585
0.819524	0.486672	0.038212
0.819523	0.487233	0.055781
0.819523	0.487569	0.073313
0.819522	0.487681	0.090826
0.819521	0.487570	0.108338
0.819520	0.487234	0.125870
0.819520	0.486673	0.143440
0.819519	0.485886	0.161067
0.819518	0.484870	0.178771
0.819517	0.483623	0.196571
0.819517	0.482141	0.214488
0.819516	0.480420	0.232543
0.211739	0.841739	0.005108
0.219720	0.839317	0.005108
0.228391	0.836652	0.005108
0.237855	0.833706	0.005108
0.248239	0.830436	0.005108
0.259698	0.826788	0.005108
0.272420	0.822695	0.005108
0.286645	0.818074	0.005108
0.302672	0.812820	0.005108
0.320890	0.806797	0.005108
0.341804	0.799828	0.005108
0.366089	0.791677	0.005108
0.394665	0.782021	0.005108
0.428820	0.770409	0.005108
0.470415	0.756190	0.005108
0.522242	0.738386	0.005108
0.588686	0.715459	0.005108
0.677059	0.684849	0.005108
0.800521	0.641946	0.005108
0.819566	0.635876	0.020586
0.819565	0.636379	0.038214
0.819565	0.636737	0.055785
0.819564	0.636951	0.073318
0.819564	0.637023	0.090831
0.819564	0.636951	0.108345
0.819563	0.636737	0.125878
0.819563	0.636379	0.143449
0.819562	0.635876	0.161077
0.819562	0.635227	0.178781
0.819561	0.634431	0.196583
0.819561	0.633485	0.214501
0.819561	0.632386	0.232557
0.218347	0.871890	0.001185
0.226693	0.870709	0.001185
0.235760	0.869409	0.001185
0.245657	0.867972	0.001185
0.256516	0.866377	0.001185
0.268499	0.864598	0.001185
0.281803	0.862601	0.001185
0.296678	0.860347	0.001185
0.313438	0.857785	0.001185
0.332489	0.854847	0.001185
0.354359	0.851447	0.001185
0.379754	0.847472	0.001185
0.409637	0.842762	0.001185
0.445354	0.837098	0.001184
0.488851	0.830162	0.001184
0.543047	0.821478	0.001184
0.612530	0.810295	0.001184
0.704943	0.795365	0.001183
0.820228	0.776712	0.002799
0.820228	0.777014	0.020519
0.820228	0.777249	0.038162
0.820228	0.777416	0.055749
0.820228	0.777516	0.073297
0.820228	0.777549	0.090826
0.820227	0.777516	0.108355
0.820227	0.777416	0.125903
0.820227	0.777248	0.143489
0.820227	0.777014	0.161133
0.820227	0.776711	0.178853
0.820227	0.776339	0.196671
0.820227	0.775897	0.214605
0.820227	0.775384	0.232677
0.220337	0.902029	0.000003
0.228793	0.902088	0.000003
0.237980	0.902152	0.000003
0.248007	0.902224	0.000003
0.259010	0.902303	0.000003
0.271150	0.902391	0.000003
0.284630	0.902490	0.000003
0.299701	0.902602	0.000003
0.316682	0.902730	0.000003
0.335984	0.902876	0.000003
0.358142	0.903045	0.000003
0.383872	0.903242	0.000003
0.414149	0.903476	0.000003
0.450338	0.903758	0.000003
0.494409	0.904102	0.000003
0.549321	0.904534	0.000003
0.619721	0.905090	0.000003
0.713355	0.905832	0.000003
0.819639	0.906674	0.002870
0.819639	0.906659	0.020576
0.819639	0.906647	0.038206
0.819640	0.906639	0.055778
0.819640	0.906634	0.073313
0.819640	0.906633	0.090828
0.819640	0.906634	0.108344
0.819640	0.906639	0.125878
0.819641	0.906647	0.143451
0.819641	0.906659	0.161081
0.819641	0.906674	0.178787
0.819641	0.906692	0.196591
0.819641	0.906713	0.214511
0.819641	0.906739	0.232569
0.217932	0.932126	0.001431
0.226254	0.933423	0.001431
0.235297	0.934851	0.001431
0.245167	0.936428	0.001431
0.255996	0.938180	0.001431
0.267946	0.940133	0.001431
0.281213	0.942325	0.001431
0.296047	0.944800	0.001431
0.312762	0.947614	0.001431
0.331760	0.950840	0.001431
0.353570	0.954572	0.001431
0.378895	0.958937	0.001431
0.408696	0.964108	0.001431
0.444315	0.970327	0.001431
0.487692	0.977942	0.001430
0.541740	0.987477	0.001430
0.611031	0.999755	0.001430
0.703191	1.016148	0.001430
0.819006	1.036782	0.002941
0.819007	1.036449	0.020633
0.819007	1.036192	0.038248
0.819008	1.036008	0.055805
0.819008	1.035898	0.073325
0.819009	1.035862	0.090826
0.819009	1.035899	0.108326
0.819010	1.036009	0.125846
0.819010	1.036193	0.143404
0.819011	1.036451	0.161019
0.819011	1.036784	0.178711
0.819012	1.037192	0.196500
0.819013	1.037678	0.214405
0.819013	1.038242	0.232448
0.211172	0.961315	0.005438
0.219121	0.963812	0.005438
0.227758	0.966562	0.005438
0.237185	0.969600	0.005438
0.247529	0.972973	0.005439
0.258942	0.976736	0.005439
0.271615	0.980957	0.005439
0.285784	0.985723	0.005439
0.301748	0.991143	0.005439
0.319894	0.997355	0.005439
0.340726	1.004543	0.005439
0.364916	1.012950	0.005439
0.393379	1.022909	0.005439
0.427401	1.034886	0.005439
0.468833	1.049551	0.005439
0.520456	1.067915	0.005440
0.586639	1.091562	0.005440
0.674665	1.123134	0.005440
0.797643	1.167385	0.005441
0.903765	1.205400	0.012724
0.903766	1.204822	0.032325
0.903766	1.204410	0.051862
0.903767	1.204164	0.071357
0.903768	1.204082	0.090831
0.903769	1.204165	0.110305
0.903770	1.204412	0.129800
0.903770	1.204825	0.149337
0.903771	1.205404	0.168939
0.903772	1.206151	0.188625
0.903773	1.207069	0.208420
0.903774	1.208159	0.228344
0.903775	1.209424	0.248421
0.200262	0.988753	0.011910
0.207609	0.992379	0.011910
0.215591	0.996371	0.011910
0.224304	1.000783	0.011910
0.233864	1.005680	0.011910
0.244412	1.011143	0.011910
0.256124	1.017273	0.011910
0.269219	1.024193	0.011910
0.283974	1.032061	0.011910
0.300745	1.041081	0.011910
0.319997	1.051517	0.011910
0.342354	1.063724	0.011910
0.368660	1.078184	0.011910
0.400103	1.095573	0.011910
0.438395	1.116867	0.011909
0.486105	1.143530	0.011909
0.547273	1.177864	0.011909
0.628627	1.223703	0.011909
0.742284	1.287954	0.011908
0.902946	1.378971	0.012797
0.902948	1.378064	0.032379
0.902949	1.377418	0.051897
0.902950	1.377032	0.071373
0.902952	1.376904	0.090828
0.902953	1.377034	0.110282
0.902954	1.377423	0.129759
0.902956	1.378071	0.149277
0.902957	1.378980	0.168859
0.902958	1.380153	0.188527
0.902960	1.381593	0.208302
0.902961	1.383304	0.228207
0.902963	1.385290	0.248265
0.185517	1.013650	0.020653
0.192050	1.018300	0.020653
0.199147	1.023419	0.020653
0.206894	1.029077	0.020653
0.215394	1.035357	0.020653
0.224774	1.042364	0.020653
0.235188	1.050224	0.020653
0.246831	1.059099	0.020653
0.259950	1.069190	0.020653
0.274862	1.080757	0.020653
0.291981	1.094141	0.020653
0.311859	1.109795	0.020653
0.335250	1.128339	0.020653
0.363208	1.150639	0.020654
0.397256	1.177947	0.020654
0.439678	1.212141	0.020654
0.494066	1.256171	0.020654
0.566403	1.314958	0.020654
0.667463	1.397355	0.020655
0.818795	1.521077	0.020655
0.901954	1.588423	0.032452
0.901955	1.587493	0.051947
0.901957	1.586937	0.071399
0.901959	1.586753	0.090831
0.901960	1.586941	0.110263
0.901962	1.587501	0.129716
0.901964	1.588435	0.149211
0.901966	1.589745	0.168770
0.901967	1.591435	0.188415
0.901969	1.593510	0.208166
0.901971	1.595975	0.228048
0.901972	1.598837	0.248082
0.167362	1.035287	0.031422
0.172892	1.040828	0.031422
0.178900	1.046927	0.031422
0.185458	1.053667	0.031422
0.192653	1.061150	0.031422
0.200593	1.069497	0.031422
0.209409	1.078862	0.031422
0.219265	1.089436	0.031422
0.230371	1.101458	0.031422
0.242994	1.115239	0.031422
0.257485	1.131184	0.031422
0.274313	1.149835	0.031422
0.294113	1.171928	0.031422
0.317780	1.198497	0.031421
0.346602	1.231032	0.031421
0.382514	1.271770	0.031421
0.428554	1.324228	0.031421
0.489788	1.394266	0.031421
0.575337	1.492435	0.031420
0.703442	1.639837	0.031420
0.900637	1.867126	0.032540
0.900640	1.865820	0.052004
0.900642	1.865039	0.071426
0.900645	1.864781	0.090827
0.900647	1.865046	0.110229
0.900650	1.865834	0.129651
0.900652	1.867147	0.149116
0.900655	1.868989	0.168644
0.900658	1.871365	0.188257
0.900660	1.874281	0.207978
0.900663	1.877746	0.227829
0.900665	1.881769	0.247832
0.146319	1.053042	0.043899
0.150687	1.059313	0.043899
0.155432	1.066216	0.043899
0.160612	1.073845	0.043899
0.166296	1.082313	0.043899
0.172567	1.091761	0.043899
0.179530	1.102361	0.043899
0.187315	1.114328	0.043899
0.196087	1.127935	0.043899
0.206058	1.143532	0.043899
0.217504	1.161580	0.043899
0.230795	1.182689	0.043899
0.246435	1.207695	0.043899
0.265128	1.237766	0.043899
0.287894	1.274589	0.043900
0.316259	1.320698	0.043900
0.352624	1.380071	0.043900
0.400991	1.459342	0.043900
0.468562	1.570452	0.043900
0.569747	1.737285	0.043901
0.738171	2.015588	0.043902
1.074760	2.572668	0.043903
2.084622	4.245883	0.043907
-nan	inf	-nan
-nan	inf	-nan
-nan	inf	-nan
-nan	inf	-nan
-nan	inf	-nan
-nan	inf	-nan
-nan	inf	-nan
-nan	inf	-nan
-nan	inf	-nan
0.122997	1.066401	0.057733
0.126077	1.073222	0.057733
0.129423	1.080730	0.057733
0.133075	1.089027	0.057733
0.137083	1.098238	0.057733
0.141505	1.108514	0.057733
0.146415	1.120043	0.057733
0.151904	1.133059	0.057733
0.158089	1.147858	0.057733
0.165120	1.164823	0.057733
0.173191	1.184452	0.057733
0.182563	1.207411	0.057733
0.193590	1.234609	0.057732
0.206771	1.267315	0.057732
0.222824	1.307365	0.057732
0.242824	1.357515	0.057732
0.268466	1.422092	0.057732
0.302571	1.508310	0.057732
0.350217	1.629156	0.057732
0.421564	1.810611	0.057731
0.540324	2.113304	0.057731
0.543708	2.120324	0.068622
0.543707	2.119333	0.079726
0.543707	2.119003	0.090818
0.542769	2.116934	0.101888
0.542769	2.117923	0.112971
0.542768	2.119575	0.124077
0.542768	2.121893	0.135219
0.542768	2.124884	0.146410
0.542767	2.128558	0.157662
0.542767	2.132922	0.168988
0.542766	2.137991	0.180401
0.098064	1.074970	0.072516
0.099767	1.082143	0.072516
0.101617	1.090039	0.072516
0.103637	1.098765	0.072516
0.105852	1.108452	0.072516
0.108298	1.119259	0.072516
0.111012	1.131384	0.072516
0.114048	1.145072	0.072516
0.117468	1.160636	0.072516
0.121355	1.178478	0.072517
0.125818	1.199121	0.072517
0.131000	1.223267	0.072517
0.137098	1.251870	0.072517
0.144386	1.286267	0.072517
0.153262	1.328388	0.072517
0.164321	1.381130	0.072517
0.178500	1.449044	0.072517
0.197358	1.539719	0.072517
0.223703	1.666813	0.072517
0.263154	1.857649	0.072517
0.317250	2.119575	0.073326
0.317250	2.117923	0.079166
0.317250	2.116934	0.084992
0.317250	2.116605	0.090813
0.317250	2.116935	0.096633
0.317250	2.117924	0.102459
0.317250	2.119576	0.108299
0.317249	2.121895	0.114157
0.317249	2.124887	0.120041
0.317249	2.128561	0.125957
0.317249	2.132926	0.131912
0.317249	2.137995	0.137912
0.072247	1.078533	0.087830
0.072524	1.085853	0.087830
0.072825	1.093910	0.087830
0.073154	1.102815	0.087830
0.073514	1.112700	0.087830
0.073912	1.123728	0.087830
0.074354	1.136100	0.087830
0.074848	1.150068	0.087830
0.075405	1.165950	0.087830
0.076038	1.184156	0.087830
0.076764	1.205222	0.087830
0.077608	1.229861	0.087830
0.078600	1.259048	0.087830
0.079786	1.294147	0.087830
0.081231	1.337129	0.087830
0.083031	1.390948	0.087830
0.085339	1.460250	0.087830
0.088408	1.552776	0.087830
0.092697	1.682466	0.087830
0.099118	1.877197	0.087830
0.107115	2.119788	0.088018
0.107115	2.118137	0.088949
0.107115	2.117149	0.089879
0.107115	2.116820	0.090807
0.107115	2.117150	0.091736
0.107115	2.118140	0.092666
0.107115	2.119793	0.093597
0.107115	2.122112	0.094532
0.107115	2.125106	0.095470
0.107116	2.128780	0.096414
0.107116	2.133147	0.097364
0.107116	2.138217	0.098322
0.046282	1.076955	0.103225
0.045125	1.084210	0.103225
0.043868	1.092196	0.103225
0.042497	1.101022	0.103225
0.040992	1.110819	0.103225
0.039331	1.121749	0.103225
0.037487	1.134012	0.103225
0.035425	1.147856	0.103225
0.033102	1.163597	0.103225
0.030462	1.181642	0.103225
0.027431	1.202521	0.103225
0.023911	1.226941	0.103225
0.019769	1.255870	0.103225
0.014819	1.290658	0.103225
0.008790	1.333258	0.103225
0.001279	1.386600	0.103225
-0.008352	1.455287	0.103225
-0.021160	1.546994	0.103225
-0.039054	1.675533	0.103225
-0.065850	1.868538	0.103225
-0.100568	2.118746	0.102534
-0.100568	2.117097	0.098616
-0.100568	2.116109	0.094705
-0.100568	2.115781	0.090799
-0.100568	2.116112	0.086893
-0.100568	2.117101	0.082983
-0.100568	2.118753	0.079064
-0.100568	2.121071	0.075132
-0.100568	2.124062	0.071183
-0.100568	2.127734	0.067213
-0.100568	2.132098	0.063217
-0.100568	2.137165	0.059190
0.020924	1.070288	0.118268
0.018366	1.077269	0.118268
0.015588	1.084953	0.118268
0.012556	1.093445	0.118268
0.009228	1.102871	0.118268
0.005557	1.113388	0.118268
0.001480	1.125187	0.118268
-0.003078	1.138508	0.118268
-0.008213	1.153654	0.118268
-0.014050	1.171017	0.118268
-0.020751	1.191106	0.118268
-0.028533	1.214604	0.118268
-0.037689	1.242439	0.118268
-0.048633	1.275912	0.118268
-0.061961	1.316902	0.118268
-0.078567	1.368227	0.118268
-0.099857	1.434318	0.118268
-0.128173	1.522558	0.118268
-0.167733	1.646239	0.118268
-0.226971	1.831949	0.118268
-0.325576	2.141742	0.118268
-0.362836	2.257632	0.110829
-0.362837	2.256531	0.100807
-0.362837	2.256166	0.090796
-0.362837	2.256535	0.080784
-0.362838	2.257639	0.070762
-0.362838	2.259482	0.060718
-0.362838	2.262069	0.050641
-0.362838	2.265406	0.040520
-0.362839	2.269503	0.030344
-0.362839	2.274371	0.020101
-0.362839	2.280023	0.009779
-0.003099	1.058728	0.132511
-0.006983	1.065234	0.132510
-0.011203	1.072394	0.132510
-0.015809	1.080307	0.132510
-0.020862	1.089092	0.132510
-0.026438	1.098892	0.132510
-0.032630	1.109887	0.132510
-0.039552	1.122301	0.132510
-0.047352	1.136415	0.132510
-0.056217	1.152594	0.132510
-0.066395	1.171315	0.132510
-0.078213	1.193212	0.132510
-0.092119	1.219150	0.132510
-0.108740	1.250343	0.132510
-0.128982	1.288540	0.132510
-0.154203	1.336368	0.132510
-0.186538	1.397955	0.132510
-0.229543	1.480182	0.132510
-0.289625	1.595434	0.132509
-0.379593	1.768488	0.132509
-0.529347	2.057165	0.132509
-0.630882	2.252177	0.123302
-0.630883	2.251081	0.107034
-0.630884	2.250718	0.090782
-0.630885	2.251086	0.074531
-0.630885	2.252187	0.058262
-0.630886	2.254023	0.041957
-0.630887	2.256600	0.025600
-0.630888	2.259924	0.009171
-0.630888	2.264005	-0.007348
-0.630889	2.268854	-0.023975
-0.630890	2.274484	-0.040730
-0.024490	1.043161	0.145202
-0.029555	1.049026	0.145202
-0.035058	1.055481	0.145202
-0.041065	1.062615	0.145202
-0.047655	1.070535	0.145202
-0.054927	1.079371	0.145202
-0.063002	1.089283	0.145202
-0.072030	1.100475	0.145202
-0.082202	1.113199	0.145202
-0.093764	1.127786	0.145202
-0.107037	1.144664	0.145202
-0.122450	1.164405	0.145202
-0.140586	1.187790	0.145202
-0.162263	1.215912	0.145202
-0.188663	1.250348	0.145202
-0.221555	1.293468	0.145202
-0.263725	1.348993	0.145202
-0.319812	1.423126	0.145202
-0.398169	1.527033	0.145202
-0.515505	1.683052	0.145202
-0.710814	1.943317	0.145202
-0.937974	2.245927	0.137607
-0.937976	2.244837	0.114181
-0.937977	2.244476	0.090781
-0.937979	2.244843	0.067381
-0.937980	2.245939	0.043955
-0.937982	2.247768	0.020479
-0.937984	2.250333	-0.003075
-0.937985	2.253643	-0.026731
-0.937987	2.257706	-0.050516
-0.937989	2.262533	-0.074458
-0.937990	2.268138	-0.098583
-0.044438	1.022418	0.157026
-0.050605	1.027429	0.157026
-0.057305	1.032945	0.157026
-0.064618	1.039042	0.157026
-0.072642	1.045809	0.157026
-0.081496	1.053359	0.157026
-0.091327	1.061829	0.157026
-0.102318	1.071392	0.157026
-0.114702	1.082266	0.157026
-0.128779	1.094730	0.157026
-0.144939	1.109152	0.157026
-0.163704	1.126021	0.157026
-0.185785	1.146003	0.157026
-0.212177	1.170033	0.157026
-0.244318	1.199459	0.157025
-0.284364	1.236305	0.157025
-0.335706	1.283750	0.157025
-0.403991	1.347096	0.157025
-0.499391	1.435885	0.157025
-0.642246	1.569203	0.157024
-0.880034	1.791597	0.157023
-1.211903	2.102125	0.150349
-1.211900	2.101146	0.120540
-1.211897	2.100819	0.090763
-1.211895	2.101143	0.060987
-1.211892	2.102117	0.031178
-1.211889	2.103745	0.001304
-1.211886	2.106032	-0.028667
-1.211883	2.108983	-0.058768
-1.211880	2.112607	-0.089033
-1.211877	2.116913	-0.119498
-1.211874	2.121915	-0.150196
-0.060553	0.998698	0.166588
-0.067610	1.002734	0.166588
-0.075277	1.007176	0.166588
-0.083646	1.012085	0.166588
-0.092828	1.017534	0.166588
-0.102960	1.023614	0.166588
-0.114210	1.030435	0.166588
-0.126787	1.038136	0.166588
-0.140959	1.046892	0.166588
-0.157068	1.056929	0.166588
-0.175560	1.068543	0.166588
-0.197033	1.082127	0.166588
-0.222301	1.098219	0.166588
-0.252502	1.117569	0.166588
-0.289282	1.141265	0.166589
-0.335108	1.170937	0.166589
-0.393860	1.209144	0.166589
-0.472001	1.260155	0.166589
-0.581170	1.331655	0.166589
-0.744644	1.439013	0.166590
-1.016751	1.618103	0.166591
-1.202803	1.740114	0.149937
-1.202801	1.739431	0.120340
-1.202799	1.739203	0.090775
-1.202797	1.739430	0.061210
-1.202795	1.740111	0.031613
-1.202793	1.741249	0.001952
-1.202791	1.742848	-0.027806
-1.202789	1.744910	-0.057693
-1.202787	1.747443	-0.087744
-1.202785	1.750452	-0.117992
-1.202783	1.753947	-0.148472
-0.072677	0.972964	0.173780
-0.080404	0.975941	0.173780
-0.088798	0.979218	0.173780
-0.097961	0.982839	0.173780
-0.108014	0.986859	0.173780
-0.119107	0.991344	0.173780
-0.131424	0.996376	0.173780
-0.145195	1.002056	0.173780
-0.160711	1.008515	0.173780
-0.178348	1.015919	0.173780
-0.198595	1.024486	0.173780
-0.222106	1.034507	0.173780
-0.249770	1.046377	0.173780
-0.282837	1.060651	0.173780
-0.323106	1.078131	0.173780
-0.373280	1.100019	0.173780
-0.437606	1.128203	0.173780
-0.523161	1.165832	0.173780
-0.642687	1.218575	0.173780
-0.821670	1.297769	0.173780
-1.119594	1.429878	0.173780
-1.193030	1.461866	0.149481
-1.193037	1.461413	0.120112
-1.193043	1.461265	0.090774
-1.193050	1.461420	0.061436
-1.193057	1.461880	0.032066
-1.193063	1.462645	0.002631
-1.193070	1.463717	-0.026899
-1.193077	1.465100	-0.056559
-1.193084	1.466797	-0.086381
-1.193091	1.468813	-0.116399
-1.193098	1.471154	-0.146648
-0.081376	0.943539	0.178937
-0.089583	0.945306	0.178937
-0.098499	0.947250	0.178937
-0.108232	0.949399	0.178937
-0.118910	0.951784	0.178937
-0.130693	0.954445	0.178937
-0.143776	0.957431	0.178937
-0.158403	0.960801	0.178937
-0.174885	0.964634	0.178937
-0.193618	0.969027	0.178937
-0.215124	0.974111	0.178937
-0.240096	0.980056	0.178937
-0.269482	0.987100	0.178937
-0.304604	0.995569	0.178938
-0.347377	1.005941	0.178938
-0.400671	1.018929	0.178938
-0.468997	1.035652	0.178938
-0.559872	1.057980	0.178938
-0.686830	1.089275	0.178939
-0.876943	1.136267	0.178940
-1.193393	1.214655	0.178941
-1.825800	1.371565	0.178943
-2.052190	1.427460	0.140092
-2.052189	1.427317	0.090754
-2.052187	1.427460	0.041416
-2.052186	1.427888	-0.007975
-2.052184	1.428603	-0.057474
-2.052183	1.429608	-0.107134
-2.052181	1.430904	-0.157010
-2.052180	1.432495	-0.207159
-2.052178	1.434385	-0.257637
-2.052177	1.436581	-0.308503
-0.085483	0.913690	0.181368
-0.093917	0.914229	0.181368
-0.103079	0.914821	0.181368
-0.113081	0.915476	0.181368
-0.124054	0.916203	0.181368
-0.136163	0.917015	0.181367
-0.149607	0.917925	0.181367
-0.164639	0.918952	0.181367
-0.181575	0.920120	0.181367
-0.200826	0.921460	0.181367
-0.222927	0.923009	0.181367
-0.248589	0.924822	0.181367
-0.278786	0.926969	0.181367
-0.314879	0.929550	0.181367
-0.358834	0.932712	0.181367
-0.413601	0.936671	0.181366
-0.483814	0.941768	0.181366
-0.577200	0.948575	0.181366
-0.707666	0.958114	0.181365
-0.903032	0.972438	0.181365
-1.228225	0.996333	0.181364
-1.878106	1.044163	0.181361
-2.053340	1.056967	0.140100
-2.053339	1.056925	0.090736
-2.053338	1.056967	0.041371
-2.053337	1.057095	-0.008047
-2.053336	1.057307	-0.057573
-2.053335	1.057605	-0.107260
-2.053334	1.057990	-0.157163
-2.053333	1.058462	-0.207339
-2.053332	1.059023	-0.257845
-2.053331	1.059675	-0.308738
-0.085185	0.883464	0.181196
-0.093603	0.882759	0.181196
-0.102747	0.881983	0.181196
-0.112729	0.881126	0.181196
-0.123681	0.880174	0.181196
-0.135766	0.879111	0.181196
-0.149184	0.877920	0.181196
-0.164187	0.876574	0.181196
-0.181090	0.875045	0.181196
-0.200304	0.873291	0.181196
-0.222361	0.871262	0.181196
-0.247974	0.868889	0.181196
-0.278112	0.866078	0.181197
-0.314135	0.862697	0.181197
-0.358005	0.858557	0.181197
-0.412665	0.853373	0.181197
-0.482742	0.846698	0.181197
-0.575946	0.837786	0.181198
-0.706159	0.825295	0.181198
-0.901145	0.806539	0.181199
-1.225706	0.775251	0.181200
-1.874323	0.712622	0.181202
-2.054460	0.695348	0.140145
-2.054460	0.695403	0.090754
-2.054460	0.695347	0.041363
-2.054460	0.695180	-0.008081
-2.054460	0.694902	-0.057633
-2.054461	0.694510	-0.107346
-2.054461	0.694005	-0.157277
-2.054461	0.693385	-0.207479
-2.054461	0.692648	-0.258012
-2.054461	0.691793	-0.308932
-0.080695	0.854592	0.178535
-0.088864	0.852699	0.178535
-0.097739	0.850615	0.178535
-0.107427	0.848313	0.178535
-0.118056	0.845757	0.178535
-0.129785	0.842905	0.178535
-0.142808	0.839706	0.178535
-0.157368	0.836094	0.178535
-0.173774	0.831987	0.178535
-0.192421	0.827279	0.178535
-0.213829	0.821832	0.178535
-0.238686	0.815460	0.178535
-0.267937	0.807913	0.178535
-0.302898	0.798837	0.178535
-0.345475	0.787722	0.178535
-0.398524	0.773805	0.178535
-0.466536	0.755885	0.178535
-0.556994	0.731959	0.178535
-0.683370	0.698423	0.178535
-0.872610	0.648068	0.178535
-1.187607	0.564068	0.178535
-1.817112	0.395926	0.178535
-2.196588	0.294784	0.143445
-2.196585	0.294949	0.090745
-2.196581	0.294785	0.038046
-2.196578	0.294293	-0.014710
-2.196574	0.293471	-0.067581
-2.196571	0.292317	-0.120624
-2.196567	0.290827	-0.173898
-2.196563	0.288998	-0.227463
-2.196560	0.286824	-0.281379
-2.196556	0.284300	-0.335710
-0.071541	0.825354	0.173104
-0.079205	0.822258	0.173104
-0.087531	0.818851	0.173104
-0.096619	0.815085	0.173104
-0.106591	0.810904	0.173104
-0.117594	0.806240	0.173104
-0.129811	0.801008	0.173104
-0.143470	0.795101	0.173105
-0.158861	0.788384	0.173105
-0.176355	0.780684	0.173105
-0.196438	0.771775	0.173105
-0.219758	0.761355	0.173105
-0.247199	0.749011	0.173105
-0.279998	0.734167	0.173106
-0.319941	0.715989	0.173106
-0.369709	0.693228	0.173106
-0.433515	0.663919	0.173107
-0.518379	0.624787	0.173107
-0.636940	0.569937	0.173108
-0.814482	0.487578	0.173110
-1.110012	0.350188	0.173112
-1.700636	0.075164	0.173116
-2.021919	-0.074055	0.139389
-2.021922	-0.073793	0.090756
-2.021924	-0.074058	0.042122
-2.021926	-0.074853	-0.006564
-2.021928	-0.076178	-0.055356
-2.021931	-0.078037	-0.104308
-2.021933	-0.080436	-0.153473
-2.021935	-0.083382	-0.202906
-2.021937	-0.086881	-0.252664
-2.021940	-0.090945	-0.302805
-0.058595	0.799140	0.165422
-0.065544	0.794966	0.165422
-0.073093	0.790372	0.165422
-0.081334	0.785294	0.165422
-0.090375	0.779658	0.165422
-0.100351	0.773369	0.165422
-0.111429	0.766314	0.165422
-0.123813	0.758349	0.165421
-0.137768	0.749293	0.165421
-0.153629	0.738911	0.165421
-0.171838	0.726899	0.165421
-0.192982	0.712849	0.165421
-0.217862	0.696205	0.165421
-0.247600	0.676190	0.165421
-0.283787	0.651702	0.165415
-0.328906	0.621015	0.165414
-0.386751	0.581502	0.165414
-0.463685	0.528746	0.165413
-0.571167	0.454802	0.165412
-0.732113	0.343775	0.165411
-1.000007	0.158568	0.165409
-1.535360	-0.212147	0.165405
-3.141418	-1.325498	0.165393
-nan	-inf	-nan
-nan	-inf	-nan
-nan	-inf	-nan
-nan	-inf	-nan
-nan	-inf	-nan
-nan	-inf	-nan
-nan	-inf	-nan
-nan	-inf	-nan
-nan	-inf	-nan
-0.042016	0.775854	0.155594
-0.048049	0.770722	0.155594
-0.054604	0.765074	0.155594
-0.061758	0.758831	0.155594
-0.069608	0.751900	0.155594
-0.078270	0.744169	0.155594
-0.087888	0.735494	0.155594
-0.098641	0.725701	0.155594
-0.110757	0.714566	0.155594
-0.124528	0.701802	0.155595
-0.140338	0.687033	0.155595
-0.158696	0.669758	0.155595
-0.180298	0.649295	0.155595
-0.206118	0.624687	0.155595
-0.237562	0.594553	0.155595
-0.276740	0.556820	0.155595
-0.326968	0.508232	0.155595
-0.393774	0.443361	0.155596
-0.487105	0.352436	0.155596
-0.626863	0.215909	0.155597
-0.859495	-0.011838	0.155598
-1.324399	-0.467721	0.155600
-1.638339	-0.775042	0.130470
-1.638339	-0.774589	0.090766
-1.638338	-0.775043	0.051062
-1.638338	-0.776407	0.011315
-1.638338	-0.778683	-0.028518
-1.638337	-0.781878	-0.068482
-1.638337	-0.786000	-0.108619
-1.638337	-0.791061	-0.148976
-1.638336	-0.797075	-0.189597
-1.638336	-0.804059	-0.230531
-0.022289	0.756165	0.143891
-0.027233	0.750223	0.143891
-0.032604	0.743682	0.143891
-0.038467	0.736454	0.143891
-0.044899	0.728430	0.143891
-0.051997	0.719478	0.143891
-0.059878	0.709434	0.143891
-0.068689	0.698096	0.143891
-0.078617	0.685203	0.143890
-0.089901	0.670424	0.143890
-0.102856	0.653324	0.143890
-0.117899	0.633323	0.143890
-0.135600	0.609630	0.143890
-0.156757	0.581138	0.143890
-0.182523	0.546247	0.143890
-0.214626	0.502559	0.143890
-0.255784	0.446303	0.143890
-0.310525	0.371193	0.143889
-0.387002	0.265916	0.143889
-0.501522	0.107841	0.143889
-0.692145	-0.155853	0.143888
-1.073094	-0.683689	0.143886
-1.445812	-1.199814	0.125976
-1.445817	-1.199254	0.090754
-1.445822	-1.199831	0.055531
-1.445827	-1.201548	0.020271
-1.445832	-1.204408	-0.015067
-1.445837	-1.208421	-0.050520
-1.445842	-1.213596	-0.086128
-1.445847	-1.219948	-0.121931
-1.445852	-1.227495	-0.157969
-1.445857	-1.236257	-0.194284
0.000020	0.740640	0.130665
-0.003691	0.734059	0.130665
-0.007724	0.726815	0.130665
-0.012125	0.718810	0.130665
-0.016955	0.709924	0.130665
-0.022284	0.700009	0.130665
-0.028201	0.688886	0.130665
-0.034816	0.676329	0.130665
-0.042270	0.662051	0.130665
-0.050742	0.645683	0.130665
-0.060468	0.626745	0.130665
-0.071762	0.604594	0.130665
-0.085052	0.578354	0.130665
-0.100937	0.546799	0.130665
-0.120281	0.508158	0.130665
-0.144384	0.459774	0.130665
-0.175285	0.397471	0.130666
-0.216384	0.314288	0.130666
